4.127100 -27.402619 -43.125441
-2.113291 -25.844953 -41.030818
-7.313295 -24.640891 -37.882188
-10.456378 -22.525876 -34.053326
-13.812693 -19.982895 -28.076159
-17.523554 -17.971982 -23.854203
-22.131609 -16.444658 -18.429142
-24.759340 -13.954628 -12.381060
-27.997076 -12.328200 -5.957190
-29.909620 -9.313632 -0.060287
-28.835767 -8.664966 6.517924
-31.129908 -4.666752 12.985673
-8.116238 -27.865595 -32.288736
-11.030483 -26.384415 -28.574643
-12.673874 -25.527715 -22.620175
-16.703605 -23.093583 -19.122999
-20.320509 -21.302046 -13.339350
-23.995041 -18.668736 -7.359247
-26.101734 -19.532684 -1.472082
-28.658643 -15.088281 3.938987
-14.329639 -27.668035 -14.119297
-18.174110 -25.681934 -8.652968
-19.898677 -25.318409 -1.728385
-22.587662 -21.940504 6.171382
-26.145162 -15.450663 9.732241
-26.225991 -11.186449 15.920188
0.693104 -29.793030 -40.847386
-3.153820 -31.285411 -36.290680
-5.190199 -32.276826 -30.668410
-6.631087 -33.082326 -24.399798
-9.355630 -31.114759 -19.224161
-9.048131 -31.522050 -13.754606
-11.287402 -30.410636 -7.900459
-13.386369 -29.425840 -2.448309
-14.677975 -27.294212 3.805464
-16.771197 -23.082931 10.188373
-17.494359 -17.006758 15.921754
1.324408 -34.126422 -35.688394
1.224478 -35.774926 -30.429837
1.254305 -36.879470 -25.439005
-2.088305 -35.747225 -21.037728
-2.635324 -35.732332 -16.026518
-3.581479 -34.906044 -11.044035
-4.811401 -33.652737 -6.302035
-7.087084 -30.660795 -0.044747
-8.980345 -28.821696 6.326877
-7.973891 -24.773630 11.053749
-9.865050 -20.303545 17.224894
4.202416 -38.266197 -20.320303
3.141078 -38.450344 -14.310551
2.268946 -37.539593 -9.810259
2.534720 -35.550286 -4.537516
1.661435 -32.217130 -0.650665
3.829653 -28.178148 3.471939
-0.556480 -26.431975 7.363436
9.128768 -31.330467 -41.934375
8.266307 -34.361679 -38.686035
8.372258 -36.963512 -34.427318
9.026314 -38.642191 -29.290714
9.482153 -39.395881 -23.187624
11.178627 -39.928840 -17.171069
10.600271 -38.917740 -10.742328
10.607293 -37.483507 -4.577950
10.308844 -32.464002 0.962955
14.847922 -36.600035 -35.081688
16.072377 -38.915348 -29.614262
17.865644 -39.673153 -23.956084
17.607489 -39.981791 -18.156049
17.675731 -38.890552 -11.587210
18.738404 -37.115584 -5.803697
17.738855 -34.522523 -1.250911
15.800271 -32.687027 4.857914
16.523798 -28.586687 -43.247125
18.747491 -32.610948 -39.343080
21.208495 -35.580652 -34.804538
23.609981 -36.772726 -29.888530
25.270598 -37.447360 -23.427246
25.308580 -37.459135 -17.401389
25.925559 -36.000249 -11.697627
25.645183 -33.532223 -4.092100
23.856474 -29.488674 2.225935
27.447793 -32.880486 -32.905874
30.110618 -33.549940 -26.789490
30.824678 -33.909177 -21.227692
31.900198 -32.563107 -14.941818
32.864973 -30.170401 -8.086865
30.416317 -28.143763 -1.017161
27.338225 -25.914210 5.780745
20.264333 -25.174863 -44.228345
24.594198 -28.414441 -39.839567
28.682069 -29.289889 -35.562248
31.909909 -29.480489 -29.931995
34.461206 -29.212411 -24.155309
37.166649 -27.450412 -17.905131
38.981342 -24.825673 -10.679386
36.807203 -22.108641 -2.231399
33.078063 -20.529164 5.298274
30.926270 -19.901486 9.155654
37.762077 -24.333101 -21.119202
40.040229 -21.460109 -16.546295
41.521599 -17.610025 -9.830497
38.997658 -14.781201 -1.537206
36.119476 -14.379448 6.726548
29.433192 -23.864542 -37.258277
33.551362 -24.412354 -31.607355
36.852221 -21.209041 -26.260189
39.741428 -17.339618 -20.712800
42.389365 -13.325122 -14.054750
42.332420 -10.206809 -6.241968
39.497278 -8.497295 0.976895
24.068481 -18.753408 -45.502742
28.634579 -18.671510 -40.932777
32.635848 -18.354294 -34.981450
36.746575 -16.012322 -28.913957
39.664115 -11.360905 -22.531843
42.676419 -6.899510 -15.207509
42.517762 -3.482507 -8.802291
40.374159 -1.518332 -2.758363
31.835052 -12.699782 -35.759451
35.182935 -9.792196 -30.355086
37.929761 -5.534002 -24.663644
40.219019 -1.010217 -18.435881
40.847545 2.760404 -11.362429
39.365684 5.222006 -4.790290
24.230298 -13.277477 -45.577690
28.051996 -10.009564 -41.816425
30.140389 -6.923064 -36.368054
33.176922 -3.424381 -30.805149
35.033731 0.294094 -26.168932
37.267808 5.050936 -19.826918
37.418306 8.734203 -13.931278
35.746524 10.030948 -8.899820
27.471250 -3.392174 -37.435081
28.471473 -0.212812 -33.378039
31.320991 3.752259 -28.063319
33.359535 8.980680 -22.453584
33.321501 12.950963 -15.416012
29.532933 13.764340 -12.144286
20.160410 -10.673679 -45.600561
22.599553 -5.104250 -42.813034
23.722972 -1.311712 -39.417597
24.466227 1.927901 -35.381923
26.129246 5.401929 -31.827465
26.911642 9.111709 -28.297732
27.394032 13.049250 -23.887993
26.242191 16.617607 -18.421646
22.843446 18.961562 -13.287241
19.552647 -0.250156 -40.362261
19.935953 3.400711 -37.188543
20.494817 7.084306 -34.160650
21.189968 11.175541 -30.437692
20.379388 15.380939 -25.902581
18.812928 19.133761 -20.851762
15.557222 23.091044 -14.692537
15.045500 -9.231582 -45.729667
15.127390 -3.400850 -43.190811
15.216441 1.193051 -40.539133
15.616573 5.724703 -38.253665
14.401705 9.037889 -35.895470
13.869357 13.455150 -32.277533
12.926423 17.712295 -28.535936
11.259409 21.944170 -22.769535
9.483891 25.056303 -18.150360
7.780890 27.374023 -14.047809
11.687646 -1.123413 -42.690121
10.130968 4.253419 -41.001888
10.105034 7.249997 -38.610983
7.973063 11.773304 -35.496733
5.958458 17.505684 -30.754917
4.980936 22.842910 -24.683979
2.165345 27.146449 -19.521310
-1.217744 29.453377 -12.905067
10.153416 -10.503238 -46.277504
9.365818 -5.927920 -44.869842
7.695585 -1.028674 -43.697243
5.395597 2.973487 -42.664229
4.033635 5.675685 -41.006088
3.736864 8.950343 -38.181221
1.991500 14.161219 -33.408547
-0.200744 19.639281 -28.481969
-3.521941 24.245361 -23.022180
-7.110027 27.166627 -17.022076
-8.888654 26.953142 -10.485352
-0.706192 8.717988 -37.379727
-3.702154 13.136566 -32.933049
-6.546251 18.864690 -27.447979
-10.357058 21.931210 -22.386081
-14.122624 23.869349 -16.080993
-17.517481 22.539971 -7.769722
4.487860 -5.423144 -43.863084
2.264595 -1.662386 -42.900063
0.483694 2.204065 -42.366059
-2.399010 4.992460 -40.210253
-6.489381 7.051943 -36.360538
-9.288163 11.244318 -31.455202
-12.557568 16.375177 -25.311198
-17.486732 18.973473 -18.362963
-20.800115 19.435374 -11.872616
-24.258833 17.969738 -5.400280
-3.884847 -0.487657 -40.459614
-8.353079 2.362461 -38.430286
-12.677545 5.943984 -32.625750
-15.866628 9.826641 -26.872747
-20.036290 13.164547 -20.083684
-22.345265 14.888069 -14.118983
6.228750 -15.701815 -46.182161
2.686533 -13.393203 -45.076370
0.387273 -10.219865 -43.399738
-1.338748 -7.002994 -41.572479
-4.292161 -4.737468 -39.729887
-9.317702 -2.156100 -37.830150
-13.516211 0.108846 -34.601867
-16.806758 2.652173 -29.353159
-20.500340 5.915776 -23.485651
-23.565262 8.380188 -16.633794
-27.159420 11.038462 -9.121434
-27.253328 10.914200 -3.898802
-3.842405 -14.843003 -41.781060
-5.836827 -12.135760 -39.065981
-9.279868 -9.664736 -36.426967
-11.675140 -6.516887 -34.504474
-17.581801 -3.553997 -29.936671
-20.777702 -0.270467 -24.777523
-23.551850 3.445521 -19.240490
-27.357611 3.947957 -12.332991
-29.414652 5.036048 -6.098175
-29.618515 5.394605 -0.607376
-16.971417 -8.013228 -29.942470
-23.403496 -4.778446 -21.309309
-26.543223 -1.173206 -14.993555
3.667206 -22.063027 -44.883299
-1.037744 -20.495728 -43.293622
-5.104162 -19.043868 -41.370361
-8.457828 -17.405101 -37.921831
-10.872025 -15.716822 -33.978062
-13.915568 -14.036375 -30.339151
-18.731777 -11.791642 -26.479717
-22.286343 -9.761626 -21.920405
-26.012645 -6.457509 -15.466160
-29.241662 -4.578874 -9.479612
-30.976548 -2.545280 -3.635408
-30.702778 -0.489977 2.471569
16.403776 -21.416233 -45.852878
10.648694 -19.777329 -46.016900
15.587785 -16.926016 -46.250481
10.867425 -24.121562 -45.129611
13.067683 -21.298905 -45.877574
