-3.599293 83.217484 88.911023
-5.899293 90.917484 66.611023
-6.399293 96.817484 44.311023
-7.499293 100.717484 22.011023
-5.999293 100.017484 -0.188977
-7.299293 99.817484 -22.488977
-8.399293 99.117484 -44.788977
-10.099293 100.217484 -66.988977
-11.799293 96.917484 -89.288977
-12.299293 90.717484 -111.588977
-12.499293 81.017484 -133.888977
-8.999293 71.817484 -156.088977
-42.199293 85.617484 88.911023
-43.499293 93.017484 66.611023
-45.399293 99.217484 44.311023
-45.799293 102.917484 22.011023
-45.199293 101.717484 -0.188977
-44.799293 101.117484 -22.488977
-46.499293 98.317484 -44.788977
-47.699293 97.617484 -66.988977
-49.399293 92.117484 -89.288977
-46.899293 83.217484 -111.588977
-48.599293 72.217484 -133.888977
-46.899293 65.817484 -156.088977
-81.699293 75.917484 88.911023
-87.099293 83.517484 66.611023
-87.899293 93.617484 44.311023
-91.199293 94.817484 22.011023
-91.099293 92.317484 -0.188977
-91.099293 87.717484 -22.488977
-91.399293 83.517484 -44.788977
-87.099293 77.117484 -66.988977
-89.199293 65.017484 -89.288977
-85.099293 57.817484 -111.588977
-84.899293 50.817484 -133.888977
-83.899293 46.717484 -156.088977
-128.399293 47.717484 88.911023
-135.799293 55.717484 66.611023
-132.399293 53.717484 44.311023
-124.999293 42.217484 22.011023
-124.499293 36.617484 -0.188977
-121.799293 26.917484 -22.488977
-117.499293 25.017484 -44.788977
-110.799293 22.017484 -66.988977
-105.999293 14.117484 -89.288977
-97.399293 7.917484 -111.588977
-96.099293 7.417484 -133.888977
-96.399293 4.917484 -156.088977
-128.199293 -60.082516 88.911023
-126.399293 -65.582516 66.611023
-121.299293 -63.482516 44.311023
-99.899293 -40.482516 22.011023
-97.699293 -30.082516 -0.188977
-98.699293 -29.982516 -22.488977
-97.499293 -31.282516 -44.788977
-95.499293 -33.782516 -66.988977
-93.499293 -33.882516 -89.288977
-90.299293 -35.182516 -111.588977
-86.799293 -36.482516 -133.888977
-82.899293 -36.682516 -156.088977
-87.899293 -64.582516 88.911023
-85.299293 -71.782516 66.611023
-83.899293 -72.582516 44.311023
-82.799293 -73.382516 22.011023
-79.599293 -71.482516 -0.188977
-74.199293 -69.082516 -22.488977
-69.699293 -62.282516 -44.788977
-67.099293 -66.482516 -66.988977
-68.299293 -69.582516 -89.288977
-68.799293 -71.682516 -111.588977
-67.199293 -72.182516 -133.888977
-65.499293 -71.682516 -156.088977
-40.199293 -71.782516 88.911023
-37.799293 -80.782516 66.611023
-38.799293 -88.982516 44.311023
-39.299293 -94.882516 22.011023
-40.099293 -95.482516 -0.188977
-37.699293 -93.782516 -22.488977
-34.599293 -89.782516 -44.788977
-35.299293 -90.282516 -66.988977
-33.699293 -94.682516 -89.288977
-32.199293 -97.282516 -111.588977
-31.699293 -99.882516 -133.888977
-30.899293 -99.182516 -156.088977
-2.099293 -77.482516 88.911023
-2.099293 -85.482516 66.611023
-2.299293 -96.082516 44.311023
-1.399293 -98.982516 22.011023
-0.699293 -103.482516 -0.188977
-0.999293 -103.982516 -22.488977
-0.799293 -103.682516 -44.788977
0.000707 -104.682516 -66.988977
2.000707 -107.582516 -89.288977
2.500707 -109.482516 -111.588977
3.400707 -110.682516 -133.888977
3.000707 -111.582516 -156.088977
31.900707 -78.082516 88.911023
33.100707 -86.782516 66.611023
34.100707 -95.582516 44.311023
34.000707 -100.582516 22.011023
35.000707 -102.682516 -0.188977
35.000707 -101.882516 -22.488977
35.000707 -100.682516 -44.788977
35.500707 -100.382516 -66.988977
37.100707 -101.782516 -89.288977
37.200707 -105.382516 -111.588977
38.500707 -109.482516 -133.888977
38.500707 -110.482516 -156.088977
66.900707 -70.682516 88.911023
69.900707 -79.582516 66.611023
71.200707 -88.482516 44.311023
70.600707 -91.882516 22.011023
71.600707 -92.382516 -0.188977
70.200707 -89.582516 -22.488977
68.200707 -86.982516 -44.788977
66.700707 -85.682516 -66.988977
67.500707 -86.782516 -89.288977
68.700707 -89.282516 -111.588977
70.600707 -91.882516 -133.888977
72.600707 -94.682516 -156.088977
108.300707 -53.182516 88.911023
107.900707 -66.582516 66.611023
109.000707 -74.282516 44.311023
109.200707 -76.682516 22.011023
107.800707 -72.982516 -0.188977
102.800707 -68.882516 -22.488977
99.300707 -66.282516 -44.788977
98.100707 -65.182516 -66.988977
98.700707 -66.082516 -89.288977
98.900707 -66.082516 -111.588977
98.400707 -67.282516 -133.888977
100.800707 -68.782516 -156.088977
151.800707 -46.982516 88.911023
154.100707 -57.482516 66.611023
150.100707 -55.982516 44.311023
146.300707 -45.782516 22.011023
132.500707 -32.682516 -0.188977
128.700707 -32.182516 -22.488977
127.000707 -31.582516 -44.788977
125.400707 -31.782516 -66.988977
124.600707 -30.282516 -89.288977
119.700707 -30.982516 -111.588977
118.000707 -31.182516 -133.888977
118.600707 -31.082516 -156.088977
163.800707 39.217484 88.911023
168.100707 46.917484 66.611023
166.700707 52.817484 44.311023
159.000707 47.217484 22.011023
147.300707 37.217484 -0.188977
142.600707 35.317484 -22.488977
138.400707 29.517484 -44.788977
133.300707 24.617484 -66.988977
128.000707 22.217484 -89.288977
124.100707 17.217484 -111.588977
120.200707 14.617484 -133.888977
120.600707 14.817484 -156.088977
110.600707 75.717484 88.911023
111.700707 82.217484 66.611023
112.900707 89.317484 44.311023
111.300707 94.817484 22.011023
109.400707 91.317484 -0.188977
106.500707 86.017484 -22.488977
103.800707 81.317484 -44.788977
102.800707 77.017484 -66.988977
102.800707 69.917484 -89.288977
101.600707 63.717484 -111.588977
99.000707 55.717484 -133.888977
98.300707 51.017484 -156.088977
72.800707 80.817484 88.911023
71.700707 89.317484 66.611023
71.100707 96.617484 44.311023
69.400707 100.217484 22.011023
69.000707 98.917484 -0.188977
67.000707 95.717484 -22.488977
66.700707 94.217484 -44.788977
66.600707 94.217484 -66.988977
65.400707 88.717484 -89.288977
64.200707 83.417484 -111.588977
62.700707 76.917484 -133.888977
63.000707 69.517484 -156.088977
35.000707 80.217484 88.911023
32.700707 88.317484 66.611023
31.400707 95.217484 44.311023
31.300707 98.117484 22.011023
30.000707 99.117484 -0.188977
30.100707 98.617484 -22.488977
28.800707 99.917484 -44.788977
27.500707 100.017484 -66.988977
25.300707 95.317484 -89.288977
25.700707 89.617484 -111.588977
23.900707 83.617484 -133.888977
24.700707 74.917484 -156.088977
-95.932626 -41.704738 88.911023
-95.932626 -23.515849 88.911023
-95.932626 -5.326960 88.911023
-95.932626 12.861929 88.911023
-95.932626 31.050818 88.911023
-95.932626 49.239706 88.911023
-63.465959 -59.893627 88.911023
-63.465959 -41.704738 88.911023
-63.465959 -23.515849 88.911023
-63.465959 -5.326960 88.911023
-63.465959 12.861929 88.911023
-63.465959 31.050818 88.911023
-63.465959 49.239706 88.911023
-30.999293 -41.704738 88.911023
-30.999293 -23.515849 88.911023
-30.999293 -5.326960 88.911023
-30.999293 12.861929 88.911023
-30.999293 31.050818 88.911023
-30.999293 49.239706 88.911023
-30.999293 67.428595 88.911023
1.467374 -41.704738 88.911023
1.467374 -23.515849 88.911023
1.467374 -5.326960 88.911023
1.467374 12.861929 88.911023
1.467374 31.050818 88.911023
1.467374 49.239706 88.911023
33.934041 -41.704738 88.911023
33.934041 -23.515849 88.911023
33.934041 -5.326960 88.911023
33.934041 12.861929 88.911023
33.934041 31.050818 88.911023
33.934041 49.239706 88.911023
66.400707 -41.704738 88.911023
66.400707 -23.515849 88.911023
66.400707 -5.326960 88.911023
66.400707 12.861929 88.911023
66.400707 31.050818 88.911023
66.400707 49.239706 88.911023
98.867374 -23.515849 88.911023
98.867374 -5.326960 88.911023
98.867374 12.861929 88.911023
98.867374 31.050818 88.911023
98.867374 49.239706 88.911023
131.334041 -41.704738 88.911023
131.334041 -23.515849 88.911023
131.334041 -5.326960 88.911023
131.334041 12.861929 88.911023
131.334041 31.050818 88.911023
131.334041 49.239706 88.911023
-72.288181 12.750818 -156.088977
-48.177070 -49.415849 -156.088977
-48.177070 -28.693627 -156.088977
-48.177070 -7.971405 -156.088977
-48.177070 12.750818 -156.088977
-48.177070 33.473040 -156.088977
-24.065959 -70.138071 -156.088977
-24.065959 -49.415849 -156.088977
-24.065959 -28.693627 -156.088977
-24.065959 -7.971405 -156.088977
-24.065959 12.750818 -156.088977
-24.065959 33.473040 -156.088977
-24.065959 54.195262 -156.088977
0.045152 -90.860294 -156.088977
0.045152 -70.138071 -156.088977
0.045152 -49.415849 -156.088977
0.045152 -28.693627 -156.088977
0.045152 -7.971405 -156.088977
0.045152 12.750818 -156.088977
0.045152 33.473040 -156.088977
24.156263 -90.860294 -156.088977
24.156263 -70.138071 -156.088977
24.156263 -49.415849 -156.088977
24.156263 -28.693627 -156.088977
24.156263 -7.971405 -156.088977
24.156263 12.750818 -156.088977
24.156263 33.473040 -156.088977
24.156263 54.195262 -156.088977
48.267374 -70.138071 -156.088977
48.267374 -49.415849 -156.088977
48.267374 -28.693627 -156.088977
48.267374 -7.971405 -156.088977
48.267374 12.750818 -156.088977
48.267374 33.473040 -156.088977
48.267374 54.195262 -156.088977
72.378485 -49.415849 -156.088977
72.378485 -28.693627 -156.088977
72.378485 -7.971405 -156.088977
72.378485 12.750818 -156.088977
72.378485 33.473040 -156.088977
96.489596 -28.693627 -156.088977
96.489596 -7.971405 -156.088977
96.489596 12.750818 -156.088977
