-36.008100 48.441700 306.082500
27.417100 38.881400 311.103000
32.031500 42.324000 311.791600
26.324100 42.436500 311.495100
-36.127400 45.065900 306.885300
-34.958600 45.147300 303.562400
0.814600 37.509800 269.875100
-1.286100 35.498600 274.580500
2.604300 33.851200 269.709700
-0.106700 31.806000 273.812500
27.672200 61.918100 276.750600
26.741000 64.548700 281.022900
30.522100 62.051500 280.321600
7.819200 36.733400 285.426300
10.737500 39.165600 283.661800
10.242400 35.509900 280.884200
30.282100 64.980200 308.061500
27.745900 67.064600 304.830600
-4.252400 62.008100 284.014300
-4.440100 58.799900 279.452100
-7.791100 58.106500 283.477100
7.379100 35.980400 305.121000
6.460000 34.364900 300.310800
2.363900 36.988400 302.061000
-3.631100 12.911900 288.036500
-5.480700 14.842500 285.289100
-2.184900 13.725800 284.971200
5.890600 19.204300 270.284200
-8.902700 18.309300 301.401900
-10.586300 21.841300 301.888600
-11.350700 19.460800 300.537800
-30.166500 39.958200 309.337800
-30.064000 45.518700 309.763400
-34.621000 41.302400 309.189800
-21.933600 46.897000 272.851900
-19.004200 47.551200 268.876700
-18.981600 43.489600 269.539300
31.614600 27.869200 274.488000
-28.263900 69.691000 305.904100
-25.612000 71.654000 304.384500
-28.108700 69.124100 302.312600
-14.212400 42.243900 270.197400
-15.050400 44.827400 271.832400
-16.520600 58.808100 278.065000
-13.861900 57.231900 273.889000
16.478800 12.136000 307.667100
15.796400 11.250400 302.650200
7.882600 34.546600 269.820800
5.435600 32.259400 272.065700
39.516400 52.195500 297.483800
38.652000 53.025900 302.101700
-23.156600 62.327900 278.546600
15.455600 26.061000 309.495400
19.126100 28.480500 309.786100
15.127000 30.848800 309.893200
22.881700 29.301200 262.251500
-32.964100 50.769500 291.787200
-32.474000 54.150100 292.120500
-31.041500 52.796100 286.754800
-13.884300 58.783100 267.133800
0.043600 27.507800 309.095900
-2.252200 24.176000 308.740300
1.132500 24.296700 308.810900
38.729200 45.434200 309.464300
39.558400 48.300300 307.671700
37.212200 49.846500 312.621700
35.197000 45.464800 312.218400
25.162900 20.195500 280.296400
24.930900 21.947400 276.124500
-9.808900 64.045900 281.700600
-10.463200 61.732600 278.824900
-8.886700 51.937400 273.583500
-6.391500 54.287500 274.438400
-19.582600 58.407800 271.750500
-17.812400 55.322300 273.179400
-14.847600 56.099100 270.078900
29.817600 22.038500 283.999400
-1.719300 74.637500 289.754400
2.685800 74.454300 291.319500
0.968200 73.704700 286.035500
-20.772800 26.534700 302.848100
-20.998700 28.469000 299.416300
-22.890400 29.174800 302.490700
3.942000 26.370100 309.027800
-18.593200 13.460200 301.265100
-21.193800 15.207900 303.793500
-21.086600 15.970400 299.430200
-9.423400 63.424300 299.089500
-5.393200 66.098200 296.979800
-9.589200 63.704000 295.440500
7.457100 13.857300 307.760000
5.052600 10.882700 307.548300
21.204000 47.740100 255.012300
18.021700 48.417500 254.211400
-8.210800 11.748400 293.018800
-11.338500 13.419200 293.070500
1.766300 66.419800 313.207600
5.035300 63.661100 312.947600
6.113200 10.677500 293.774600
10.803800 10.479200 297.267100
6.414400 9.808400 297.926200
7.766400 39.452000 293.146400
10.340200 40.714600 289.339800
7.000000 38.884500 288.932800
27.524100 27.298400 310.029100
9.294300 64.034800 265.378100
12.482300 60.772500 261.540100
7.924900 61.555700 261.719200
-28.177800 54.245000 310.679100
-25.033500 57.620000 311.224000
-29.449000 57.500200 310.986100
-12.458600 34.146900 266.518500
-9.569000 32.582000 264.418300
-16.086500 33.652200 270.365000
-9.247800 54.175500 311.478800
-12.727800 56.031200 311.464200
-12.443000 52.313100 311.193400
-21.158500 23.046200 306.493100
-22.919200 26.383800 305.972900
-31.918500 35.186900 301.840500
-32.370800 37.107100 296.801100
29.886100 19.341700 297.010400
-12.157500 50.566700 284.308500
-11.142700 55.142300 284.987300
-21.121300 56.762000 299.616500
-19.861400 56.277300 296.140400
-19.735500 59.674400 295.393700
22.147100 18.996800 309.007800
25.925400 19.008000 307.831600
-20.981700 57.332300 308.485900
-7.690700 64.656900 292.455100
-4.897700 65.091300 292.989200
-4.755300 63.016700 290.990500
24.324600 54.541300 260.978000
19.197000 12.545200 302.022800
-22.318300 55.779900 311.042900
-21.599400 52.698600 310.559200
-24.778600 52.525500 310.696600
-12.429300 10.249400 306.810400
-8.818200 8.922200 306.702000
-8.551200 12.947000 307.146500
36.016900 39.864100 269.867200
33.359500 41.827400 264.587600
34.904700 44.753300 267.216100
-14.670500 12.214500 298.870600
-15.134100 10.803500 304.137900
-17.757600 62.884100 300.972100
-18.219700 64.704400 304.435200
-19.400700 59.688400 301.169300
-18.065000 61.813700 297.556200
-16.900400 64.745300 294.898000
-16.051700 65.676700 298.221000
-34.579900 41.927400 304.759900
-34.499100 43.584700 300.523200
-33.236500 39.472200 301.778100
1.859200 7.066600 305.904900
-0.550000 11.632600 307.412700
-12.470900 39.129800 309.803800
-9.688200 43.702100 310.203300
-6.608700 70.486000 276.831100
-2.811100 70.986800 277.459600
-3.240100 68.743500 273.041000
-4.467700 75.562700 296.415500
-21.479800 38.626000 273.911000
-19.414300 40.280000 270.544900
-17.947300 37.139800 270.567300
-27.423700 27.311100 291.456900
15.157900 71.238700 284.887800
14.202800 70.031000 279.997500
11.481800 72.105700 283.990400
-10.167900 58.049800 263.805800
-13.224800 55.661400 264.467400
11.152300 37.397200 252.816900
6.681300 37.723600 252.542000
10.052600 40.905600 252.284400
-4.393900 43.816400 309.374800
-6.717300 48.785200 309.709100
-6.921000 45.573500 310.844100
-4.157300 48.068800 306.017700
-23.082500 47.688800 302.814200
9.909200 74.842900 304.486100
7.747700 74.525300 299.609100
6.463400 74.706600 305.361100
3.581400 75.099400 299.077200
3.602300 75.224600 303.311400
17.705400 72.327200 296.007600
14.642400 72.850300 294.555900
13.254000 73.900500 300.417800
-27.961500 36.437700 283.272600
17.103800 18.322500 308.683300
6.179100 12.931700 285.232100
11.382100 13.417400 285.643300
0.329900 75.155400 296.363100
3.873900 74.552200 294.977900
39.456500 50.612000 304.382900
38.611900 51.655700 307.520900
30.053200 64.791600 311.462800
32.746500 61.090900 308.443000
5.066200 28.105900 283.933700
4.069900 30.175100 286.830700
2.359400 27.545900 281.738600
1.114800 68.023400 272.347200
0.786600 70.072600 276.305400
16.427300 38.931300 306.520800
14.705500 35.786700 304.735400
2.582800 37.072600 253.632100
3.279400 40.552000 252.576000
-24.868000 63.309500 282.424900
37.787400 37.902400 309.962400
37.773600 34.871100 307.837600
39.059100 37.932900 306.662700
19.649600 38.209600 310.982800
22.022700 41.836000 311.375700
23.366500 43.985400 300.411300
36.037800 31.927800 309.232400
36.174100 34.914000 310.968700
10.960900 31.624800 309.992600
9.908400 27.475900 309.322900
-10.040400 63.398400 302.414600
24.438100 69.368500 294.201100
26.529500 67.447400 290.983500
23.161100 69.349600 290.532500
-15.702100 44.576500 277.260700
-16.449500 42.335400 280.721000
-13.059500 52.127200 269.899600
-13.845000 50.530500 274.657200
-10.282400 50.183000 270.870700
-21.570200 57.245000 283.457900
-21.868800 56.895800 287.132500
32.093800 21.754100 295.140500
29.585400 19.529100 293.262900
33.410800 59.609600 282.904900
32.536900 61.823600 285.285100
35.478100 58.796400 285.934000
-17.161300 70.956700 283.275500
-11.839600 61.707500 308.995000
-9.779100 63.150600 305.776600
-11.756500 60.880600 303.890200
-11.637900 58.344900 308.470400
-21.681200 41.198000 287.563700
-23.050500 42.986700 282.652700
3.212600 48.132400 287.533800
2.057600 44.776900 287.903200
1.500400 46.982800 284.634500
-7.534900 68.328300 297.184700
1.242100 33.484000 255.582100
5.651100 33.562000 254.252100
10.453300 55.078300 305.698000
40.527100 38.327500 287.266300
40.511700 41.601200 283.953100
40.945700 42.722000 287.706300
-18.136500 74.773700 295.193800
-19.453800 73.143500 291.564000
-22.915900 72.339700 295.754700
11.558400 16.827300 308.472000
7.054100 17.654000 308.199900
-1.932600 44.964900 305.432100
-23.801500 22.649500 290.105000
-25.698700 23.291100 292.904200
-25.365200 25.895300 288.124400
-2.483800 11.252200 292.557800
-0.192700 28.110200 260.186500
-3.968300 31.835500 259.438100
-0.610900 31.071600 257.845700
13.492900 35.396500 279.769100
23.519300 28.307400 310.092300
18.035900 48.772400 285.540700
14.619400 48.263800 288.983700
-36.081400 43.766400 309.436700
-33.791600 45.453200 309.762500
-14.641400 15.647800 291.281700
-11.531400 14.627400 289.749900
11.011300 40.850300 260.711500
7.528100 38.474500 264.069200
14.128900 38.876400 261.996100
8.653600 50.106700 270.712300
7.255100 47.011400 267.514100
11.065600 47.358100 268.896200
-15.451600 28.789300 304.891800
-17.308300 29.158700 300.618500
-13.714100 24.236200 301.191000
14.930000 15.371100 308.498700
27.816700 67.402700 311.114900
-10.968000 24.150700 275.014300
-14.855500 26.726300 275.422800
-18.706900 35.938900 277.904600
-24.880100 20.871000 297.170900
-23.422300 18.004800 301.937800
-14.312900 54.566300 299.260800
-15.224800 51.478700 295.836100
-16.483800 51.756700 299.143300
7.832500 45.275200 263.224500
7.744600 41.694900 262.240900
12.686800 65.815900 269.922800
16.387400 65.629000 271.557300
17.560000 63.292400 268.453000
-29.201800 42.474700 282.603000
-14.346900 66.479500 284.051200
13.844900 35.403800 253.622300
17.070500 36.485900 254.097800
-5.692700 66.979800 290.961900
4.152200 73.705400 288.074900
7.689900 73.076300 287.496700
4.722400 72.623500 284.648200
28.856800 31.171900 310.605000
25.900700 40.684400 290.893700
25.259100 44.039600 294.527300
24.603600 43.107300 288.767900
-32.898400 55.474900 295.248500
-33.404900 52.100900 294.906700
-33.944000 54.555100 298.633700
5.212800 67.177600 270.777500
37.022200 28.345200 297.604000
37.408100 30.101800 301.565100
16.198500 32.837000 255.562300
38.954100 41.254600 308.686100
39.589300 42.531800 305.079200
-18.297300 14.657600 296.909600
-12.808100 59.022700 299.110500
21.394700 36.677200 277.276500
23.707900 41.366800 277.907800
20.419400 40.472700 274.578200
-17.244000 50.476500 310.134000
-18.226800 48.676000 307.140000
-15.408000 47.352000 310.499800
-16.671800 52.600900 307.093700
32.836000 47.488200 264.901200
34.882000 48.559900 269.507300
12.423600 50.991900 272.956500
15.434600 48.922600 275.556100
14.939700 52.542800 275.121100
13.740800 47.496900 272.540800
-35.275100 48.480600 302.701500
-34.083100 50.930500 298.044900
-33.944600 46.408600 296.852500
41.350600 43.612500 293.557000
41.401500 46.099200 295.936200
40.933500 40.656700 295.428700
15.109000 27.112200 260.922200
18.972900 28.226700 261.260500
37.073800 28.317800 294.268700
36.323400 27.090500 290.406800
38.469500 30.607400 290.652100
2.151500 43.610900 295.012500
2.077700 42.013700 291.761700
3.049700 47.048800 291.019800
2.942000 53.389300 256.004100
-0.425500 50.129000 255.104000
19.985200 17.798100 280.368300
30.164900 64.551400 313.945600
30.192200 62.076900 313.542100
27.688700 64.888100 313.926600
-6.438900 70.642600 287.897400
-4.787900 65.305700 288.130200
-17.781500 41.677100 306.950700
-17.684700 45.189400 307.294400
-17.536500 43.753900 304.034600
33.914100 52.330300 270.709100
31.926800 55.665200 271.942600
35.142200 52.881300 274.534600
-31.987900 59.264000 295.430200
-30.334800 59.732200 291.583900
-31.186800 56.686100 290.213100
12.586900 45.144600 265.025200
-8.840700 68.064900 290.224300
24.264600 49.085000 257.434000
27.034900 47.919000 259.416400
24.187100 44.297500 255.788400
-11.985400 67.320000 273.727000
21.598400 55.983000 312.805000
18.356700 57.717000 312.796800
19.114300 53.038000 312.511600
-13.820500 76.773600 306.597500
-11.271500 76.850100 304.166300
-14.674200 76.814700 303.093000
-9.200400 61.908900 287.385800
-10.368700 63.531800 290.363400
25.746200 67.086800 285.735400
-19.619700 60.004300 306.441700
-28.355700 60.536000 286.507800
-26.685700 65.726900 289.145100
25.307900 41.290000 282.912400
23.719700 44.471400 279.564600
-2.515100 63.124400 286.749700
-4.616400 65.663300 284.466900
-21.658300 43.134100 278.825300
-22.306400 46.104700 278.530600
9.239000 21.265400 267.055700
35.623200 26.600200 300.081100
34.102700 24.641100 297.714900
22.373200 70.712200 298.416400
20.472900 70.986600 294.476000
-1.899200 64.276200 312.753500
37.442500 40.675000 273.196100
5.997500 57.730100 304.490500
7.401300 57.572600 300.289200
16.276500 13.524200 287.952700
12.735400 12.221100 289.708000
0.796900 26.548900 278.733800
-1.160000 30.442200 277.768800
-25.485700 71.137200 300.791400
-22.751600 73.752900 305.162900
6.579600 28.742900 309.287400
9.502200 33.994600 301.831600
-30.907100 47.795700 285.283400
-28.609000 47.178500 280.829700
-14.756700 75.665900 296.183700
38.073000 49.366300 277.810400
39.755900 46.203300 280.760900
23.915900 45.795800 297.361100
22.308900 47.516800 301.136800
-12.534800 64.660300 307.446300
-10.193900 66.659800 305.303200
11.879600 25.071000 262.226400
8.903700 26.874900 259.405400
12.887000 28.857100 258.033100
-10.632200 52.538900 265.502800
-19.573000 57.537000 292.102100
-20.345000 54.223900 289.556000
-18.393600 63.455100 308.365900
-19.564700 62.095100 311.960200
-7.572900 33.928900 261.360500
-22.128100 56.131500 273.731400
-18.325700 55.804500 269.744600
1.113500 42.337600 270.575500
-0.143200 39.110200 273.484400
-10.600700 46.046200 285.800600
-31.647500 35.122400 308.686500
-31.007500 33.338000 305.214500
-29.565900 30.947200 308.019100
-26.968700 35.408500 308.888600
-13.196100 59.788600 311.594300
-9.832800 61.423200 312.083900
-3.839000 40.575400 256.245900
-7.511700 60.249600 277.820300
-6.842500 57.774000 273.975300
-7.424400 54.765700 277.782400
10.898100 30.819200 255.749600
-4.578200 9.771700 307.015000
-32.594600 40.422600 292.641100
-33.153100 44.454000 292.691000
-31.669500 42.894100 287.339400
-5.703800 17.788700 305.524900
-2.302100 14.766500 307.457200
-2.348800 18.313900 308.002700
24.603300 62.391300 273.520700
29.248300 59.192400 273.344700
15.105800 52.029900 299.811200
11.845200 55.359800 311.891700
11.142900 58.707900 312.701100
39.002400 52.470900 286.313300
-25.724000 69.852400 312.369500
-23.663700 73.328700 312.031400
-26.636200 70.930000 309.816200
-22.481000 68.919300 312.418600
-19.354700 52.316200 269.719000
13.885500 62.912000 265.512600
-18.249500 13.813500 307.065700
-17.728200 19.615900 307.527200
-22.426600 17.145700 307.098700
-17.771600 31.714500 303.441600
11.259300 67.757800 313.659400
8.394800 66.024000 313.397400
19.928500 48.438900 281.782000
-9.533000 67.378200 287.004100
-8.269600 66.065100 284.169800
-31.417000 63.740100 301.488800
-33.169600 61.278200 303.142400
1.035100 51.046000 296.331300
1.671100 47.076400 295.997900
-19.428000 51.215900 280.771400
-19.743100 51.853800 275.861200
-18.543700 54.622600 277.719300
-20.060800 54.853300 281.074200
39.427200 33.506300 293.352500
-9.228900 57.818700 311.841500
-5.677200 54.413300 311.672100
26.513400 67.889300 307.953500
-26.712200 51.206200 278.436200
-26.357500 55.389100 278.976000
-24.488100 54.272000 275.942400
40.692900 43.972300 300.551500
-35.012800 52.411400 310.214000
-32.037500 50.518500 310.289900
38.943200 38.942600 277.613000
39.844100 41.557700 280.071000
9.008500 9.557200 300.605900
28.393300 20.504100 305.247900
7.478200 29.939700 256.458900
3.524200 30.412300 256.764400
37.186500 55.525100 286.710300
6.549100 58.095800 290.924100
3.262600 58.509600 292.152500
5.804500 58.797500 293.782900
18.877900 36.759400 282.714400
17.972000 37.322800 278.642800
16.657100 34.617200 280.868500
-4.440600 23.760500 268.516600
-8.709100 23.895500 272.478900
-7.738400 25.350300 269.558500
-24.521700 34.187100 278.804000
-22.587700 36.230200 276.205200
3.249400 40.100100 289.107200
-2.305700 55.596600 311.931900
-1.783300 60.083900 312.351700
-5.652900 58.525800 311.912800
-24.602800 61.464900 311.618700
-22.067500 64.383600 311.925900
-26.992200 67.224200 312.208600
16.248300 11.386000 298.107900
-13.524700 31.313200 269.340800
-15.884000 53.712800 311.079000
-14.657300 55.954000 307.628600
16.160600 34.534200 310.419700
40.520300 49.042500 299.816100
-24.888300 32.444900 308.673700
-24.771300 28.851000 308.199700
-23.081100 31.271200 305.156200
-9.127300 46.493500 259.488300
-6.523400 48.683200 257.538000
-7.224600 42.563900 258.183400
-0.030400 51.202600 299.488000
1.625700 54.615300 298.798600
1.354000 54.813300 303.614500
-5.322400 61.425700 287.742000
-22.751300 51.739500 273.804400
31.908200 64.371500 295.764700
5.258300 21.838700 266.157400
8.694800 23.481400 263.864600
39.719900 33.862400 289.753600
39.255800 33.579900 286.202900
0.233400 44.838700 298.663200
-1.227100 46.202200 301.857800
0.493700 42.388500 301.514500
-15.758100 44.160800 265.842900
-11.954400 43.750800 261.743800
6.384900 47.056300 271.248700
7.480400 38.467800 297.343600
3.446200 35.768700 297.947700
10.797400 33.821600 253.745600
12.201700 36.624700 301.731200
-16.269100 51.119600 270.914400
-16.220200 54.334900 266.646100
24.310500 19.007000 283.737700
-21.072400 53.648800 285.505600
-21.466100 50.104400 290.137700
40.392400 47.317100 304.443000
5.755600 35.648800 288.492400
6.565000 32.878400 286.516600
18.280500 69.779200 283.092500
17.419400 71.158000 287.466400
20.625200 69.931100 287.646200
2.285400 53.470200 294.406100
19.992800 49.164900 311.885000
18.637300 46.112800 311.737700
21.698800 45.677900 311.824400
-3.712900 61.624700 264.015200
-0.341400 63.178100 265.100800
0.553800 60.237600 261.420200
-24.307600 48.479200 275.112700
9.236700 33.820200 277.719900
12.054100 35.397600 276.649400
-7.009200 21.056800 303.476500
22.373300 19.929900 277.822900
21.972300 21.651000 273.592500
-2.946900 66.972700 270.146600
24.669300 37.708800 279.480600
25.653800 60.273400 271.041200
22.815700 61.436800 269.525700
13.575800 33.342400 302.345400
15.536000 72.298500 304.464700
13.184400 72.110200 308.774300
17.845800 70.825400 308.523600
-21.357000 73.892900 308.863800
-17.140600 76.172600 305.590700
22.466500 36.528400 282.707800
-18.933500 65.979200 312.433800
28.173300 49.225700 312.132200
27.947300 45.552800 311.848300
31.049400 47.171800 312.263700
37.223000 44.076200 271.484900
37.113900 56.182700 291.538600
30.765100 64.539300 290.770400
30.049500 64.055500 284.864700
2.586400 41.342600 285.936400
23.302400 14.492300 296.593800
10.883700 46.716000 284.066700
12.919000 46.936000 280.458500
15.232800 46.826400 283.417600
6.893500 73.905800 308.799600
10.245300 73.222600 307.461100
19.813400 68.883700 312.494900
23.489200 69.485300 308.498900
11.207000 54.016100 278.056900
-18.270000 49.719400 273.441800
-15.500700 65.193100 309.176300
-16.464800 63.438400 312.013800
0.288400 38.580600 284.902600
18.747400 16.070800 283.862500
26.936500 52.529600 312.454900
22.854900 52.078500 312.350400
25.057100 47.583500 311.981300
-23.857200 42.251900 275.616300
-5.849700 75.444000 291.808400
-6.554900 74.918200 288.115000
-14.624500 13.814700 294.392600
8.093600 72.524600 284.111500
6.680600 71.752100 281.102400
10.844600 45.473800 252.715700
5.364500 23.051400 308.820700
8.773500 21.877300 308.765500
-3.942700 74.178500 285.454800
16.008800 51.109000 254.294100
15.372000 46.484100 253.538600
-11.863400 48.727300 261.560500
-14.764400 48.657100 264.436100
-28.806800 62.412200 290.055500
-6.210700 26.979600 266.223200
-6.568500 30.163400 263.790300
-3.348300 28.014200 262.674200
-7.403000 60.640500 264.502900
-25.374100 44.026800 309.807400
-17.545500 42.150600 291.337500
-2.427300 32.033500 309.440600
0.189200 35.172600 309.885300
-3.360600 35.361000 309.905800
4.458800 27.365700 259.183500
-19.472400 43.106500 275.925300
2.929600 15.683900 307.871800
16.157400 43.730800 261.680700
10.853600 43.882000 262.342900
-22.353400 41.745600 306.656100
24.022000 67.146100 314.056700
28.623600 26.302300 273.150400
-3.870600 52.319600 309.377600
14.564600 15.129700 283.256000
-14.909000 48.823700 293.347100
20.224000 61.330400 267.060800
35.582600 58.356300 289.344200
33.681300 61.060900 288.348100
18.345600 68.343800 278.656000
16.241100 40.139800 292.258200
5.200400 69.820900 277.283700
2.057600 71.622100 280.514900
38.315600 35.586400 279.048900
36.106900 31.497600 278.025100
0.877300 25.268400 263.158900
18.886000 51.148100 301.155900
-4.132900 76.069400 309.476200
-6.702000 76.890000 305.539800
-31.069800 63.116400 298.121200
-27.928900 31.640700 287.386500
-26.528100 32.543000 283.481100
22.071000 34.513300 287.348700
-8.736800 68.019300 273.136600
34.157700 57.661400 280.129300
-8.135200 76.184000 296.892700
-9.444400 75.659600 291.910300
-11.645100 51.949700 279.239900
-9.941200 55.519500 281.018000
-7.656000 8.759700 302.837100
22.579200 68.618000 284.904700
-14.869400 67.138100 293.225500
-16.798900 64.272100 289.117400
3.780200 38.390600 294.839700
1.993000 41.269100 297.773800
9.118100 65.887700 268.489100
5.801900 65.266000 267.179500
19.189500 34.422000 255.774400
16.859800 29.730000 258.120800
18.352300 72.199200 299.371200
-24.904600 69.113900 290.893800
-26.834000 68.146900 294.497200
-22.618100 71.542500 292.255100
-23.390000 21.034100 307.572900
-26.040700 22.295000 306.308200
-24.453400 19.314900 305.100400
-9.353800 53.115400 269.149900
9.982400 58.358700 258.384300
5.353300 58.792900 259.044800
1.432500 7.930000 300.197300
11.070900 74.307600 296.644600
7.566800 73.981400 294.041300
-19.510700 33.047500 306.586000
-21.054500 31.844300 301.478800
23.435500 43.066800 285.393400
23.489800 45.609400 282.876500
-28.419100 60.806400 311.507300
-28.645800 64.241200 311.744300
-1.453000 32.740600 289.749500
1.545400 30.020100 289.518100
27.168800 67.601800 301.420000
-34.091600 38.029000 305.914800
-9.322300 14.972900 303.626700
-5.019600 13.772100 305.360700
-23.517700 45.771400 306.499100
3.102400 47.637400 281.441500
3.422500 44.858200 279.109700
-3.558400 58.581800 261.318800
-10.258000 76.810500 307.616200
30.687800 41.044700 261.417800
27.703800 44.425600 258.780500
-20.021800 52.750100 293.614600
-20.581100 58.892000 311.519400
-1.560000 51.225800 303.851400
-1.526300 52.654300 306.938500
10.267800 40.160100 295.959400
8.599500 62.071000 312.960400
1.810300 38.552600 305.291200
-0.469700 41.387800 305.455700
-15.347300 49.856500 281.983000
-16.526700 46.823900 284.340900
7.066100 32.326900 279.872500
7.299100 31.242500 276.624500
7.562900 27.625300 278.842400
32.982700 37.732700 265.600000
-19.186400 37.946800 309.344200
-2.662500 25.228800 265.498200
13.589200 21.640700 308.914300
4.993000 24.272900 262.840100
21.296800 13.045000 299.232900
19.605700 12.741800 296.153800
-32.394100 47.170600 289.346100
-10.721200 76.028300 299.601000
2.327900 56.654400 257.983900
-1.377000 56.133800 258.908300
-29.921600 56.735500 286.307400
16.083900 44.924700 264.975100
14.184100 72.329700 288.483400
17.910700 71.530600 290.841700
-10.831000 59.507000 276.213900
18.403300 50.842100 307.761100
19.986400 52.985600 304.361800
19.503400 40.943300 306.270000
9.839800 72.276200 310.703500
-14.790700 45.182600 293.680500
-10.139300 45.953400 291.938200
-27.463500 27.753100 308.138700
-28.147500 26.610800 305.551200
16.456600 47.748000 279.482300
8.493500 33.154500 283.274500
18.780000 51.790200 297.358300
-1.215500 34.722600 278.436200
36.724000 40.735300 311.816700
34.426300 38.016500 311.440000
-9.093800 58.475300 286.695100
6.073400 36.275900 266.884200
2.639500 37.935100 266.275400
21.287300 33.801200 296.059000
23.968200 36.341100 295.336300
21.592700 35.609400 293.732400
-29.292200 68.041100 309.229300
40.244300 38.843200 300.539000
-17.750000 47.250500 303.987500
6.481500 73.885100 290.700000
11.311900 73.509200 291.678600
-12.083200 36.941900 264.582800
-10.152400 37.701800 261.872700
-18.224500 21.826600 302.698300
-18.166400 25.035600 298.559300
-4.369900 51.938900 257.117700
-8.671100 50.948600 260.313100
34.477600 55.377700 277.030200
-18.318700 56.755700 279.706800
18.973000 43.681400 266.526100
-1.987800 8.242000 300.166400
40.630900 36.905300 291.450300
41.152800 40.958400 291.373500
10.491300 16.819000 276.499000
13.731300 18.026200 275.694300
9.647900 47.172700 278.621600
32.266600 58.204300 277.276600
6.782400 32.279900 309.722800
36.664700 29.195100 284.369700
37.252600 29.130500 287.773600
0.996300 31.457800 309.307700
-16.906300 47.320400 275.422300
-13.478700 43.148700 274.004600
28.170500 22.192200 308.131000
32.697600 24.193500 304.977600
8.404200 55.833100 309.125300
2.337800 21.131700 308.482000
-9.594300 70.356300 288.144900
14.365300 69.024000 313.818500
8.864000 70.127700 313.764300
-0.193600 65.901400 268.450900
16.295000 42.433800 310.821500
12.617000 53.427200 255.148400
3.474000 63.247300 264.456800
-5.251300 66.765400 312.802800
39.919300 37.832400 282.917200
38.049900 32.640000 282.181500
11.816600 40.927500 292.867300
13.961800 55.911700 257.818700
-12.358800 66.431100 288.565500
-17.384400 66.214600 286.071200
24.956600 38.136400 285.776100
-11.328400 75.773400 294.978500
-19.482100 68.952300 281.884000
-5.385700 8.689000 299.934500
7.277700 54.690000 290.259300
-7.944500 31.349000 309.182500
-12.883800 67.785800 298.555700
-32.313800 59.499000 311.239900
10.207800 70.665700 279.297300
11.660100 47.059100 287.490500
17.926000 45.781500 276.663700
21.569500 46.162500 277.361600
-22.791600 23.563300 286.947300
-6.942500 63.472400 279.698600
25.345500 37.381400 289.957400
-5.287800 10.548900 294.521400
20.763000 37.645200 255.169100
-2.478100 72.623500 280.967300
-11.885100 64.383700 311.098800
8.892500 56.517200 312.192000
13.439700 11.129800 294.740300
16.670900 11.960400 293.121000
28.685100 32.380300 264.010900
-4.861000 29.612800 308.909900
-25.530700 45.436400 276.690200
20.934900 14.014500 292.473200
13.076800 34.950700 308.430000
-19.688800 59.611500 288.403200
-19.845600 63.148300 287.445300
-27.978500 50.194900 310.153400
-19.747000 30.630600 296.304600
-17.515600 28.192700 297.316800
-21.115200 20.903600 288.830400
41.332800 46.060900 291.141100
33.290100 62.225200 291.657200
-16.354600 49.267700 278.144600
-6.072800 63.408900 312.486300
10.868400 49.752900 291.373500
20.268400 70.963200 304.340000
24.467300 69.623100 302.393900
33.768500 28.626500 277.452400
35.536200 28.873400 280.741100
-17.822500 44.557500 273.323700
-25.727000 21.502300 302.215400
23.510700 65.055400 276.966400
-16.264200 48.964800 301.335500
-17.410400 51.865400 303.472900
1.714600 21.203400 268.158500
-0.172400 40.375000 253.875700
15.979300 51.038100 311.476900
15.290600 55.320000 312.509800
-13.922400 38.632900 271.879700
-14.541300 40.504000 275.043200
32.604800 59.322000 312.972300
-10.712100 54.404600 261.704600
4.120900 60.830500 261.804600
26.000600 23.786100 273.128400
24.568400 24.923200 269.806600
19.023400 66.171500 274.581100
20.199000 63.858100 271.465200
5.735900 72.116200 312.202700
8.903800 37.019700 300.325800
-10.406500 70.059300 277.668900
21.451000 13.582200 305.004800
23.763100 14.221400 301.461200
-3.754300 46.736000 255.541100
12.056500 22.884600 265.290300
-0.630500 53.435900 256.595700
-30.140500 62.311800 293.861100
-24.164300 48.769900 310.390600
-24.291100 72.477300 307.908300
-19.706800 56.439500 310.711200
7.860400 25.556500 282.355900
-15.121100 54.836400 303.876500
26.402800 40.132100 257.623000
5.868200 55.838800 256.595200
34.965800 59.957400 293.789100
-10.137100 40.980700 260.998700
8.669500 12.039500 288.837900
18.197200 44.449600 273.187600
17.964500 43.093300 269.895500
20.891000 43.774800 275.085200
32.296600 51.067400 266.915700
-21.019000 49.528800 270.842000
11.098700 34.066100 304.854500
2.213400 23.125400 265.417800
18.210000 61.364100 313.288500
32.725700 26.308200 280.450200
-7.757400 13.652200 288.194700
-11.913100 16.764100 287.040800
-9.049600 16.240200 285.152000
12.203400 24.836900 309.255000
-12.598200 18.734500 284.266700
-24.054700 29.857800 281.506900
17.288100 39.366300 264.225500
-1.511800 73.313900 311.731200
-29.402100 50.895500 282.778500
-1.222900 39.953200 310.351200
-6.907000 39.415600 309.965800
22.586100 67.488200 281.476500
21.036700 64.358200 313.502200
35.611100 27.788800 304.568700
20.044800 48.676800 303.885600
32.962300 24.575900 284.095200
-17.951000 69.398900 312.649900
-20.189800 72.351600 312.844100
7.665900 24.642100 279.464700
0.244800 73.286100 282.795000
-5.212800 26.104600 308.595000
-2.570600 43.538900 255.063600
-13.750800 67.248100 312.604300
-13.813000 72.627300 313.108900
-11.101500 48.847200 310.915100
30.247900 24.184400 309.835400
33.813200 28.243200 309.162400
11.055200 72.786600 287.277600
-13.643800 57.976600 302.563700
-7.968800 39.076700 259.217800
-22.033300 49.804300 277.614700
19.389300 44.101300 254.244700
5.198300 68.348500 313.371100
15.662400 61.103000 263.041100
-1.274600 22.810400 267.533000
-25.706900 28.854700 285.199200
-33.640200 47.833600 293.637900
17.104100 65.606900 313.526500
-17.254100 46.212900 280.509000
-0.473400 38.351600 277.267800
12.380000 51.258500 278.623800
-18.026500 20.463200 286.712400
-3.746700 62.132700 280.501600
-20.615700 44.728300 293.846800
2.724600 37.285800 308.566000
3.547500 34.000100 310.001000
36.422300 54.273300 310.414600
15.095600 46.821200 269.117600
-2.107800 75.248100 293.470300
24.046600 39.718700 293.658700
-29.518600 32.609800 290.500800
32.943400 51.205300 312.778100
33.212500 55.671100 313.192800
35.218000 53.291200 313.098800
24.336800 15.980500 305.998100
-10.312000 74.611600 288.576000
4.978800 8.226700 300.846900
4.813300 23.901300 280.198400
-14.823000 29.850000 308.688500
15.183100 38.089900 310.824600
-21.546900 41.912600 272.694200
-16.063500 48.279400 296.448800
-3.349200 15.442400 282.165500
-19.548000 46.253200 277.255900
-27.036300 46.959600 309.963100
-10.199100 49.222800 267.238900
-15.179700 65.163600 302.005500
-12.208000 67.700300 302.314100
-33.372800 41.663600 296.422800
-29.044200 65.367100 295.835800
-28.106400 65.070800 292.379300
15.344100 22.809400 266.982100
40.764800 46.360500 285.106300
2.048500 70.685200 312.883500
1.213300 74.344500 308.419400
23.160000 40.599500 255.639000
-11.574800 20.788400 280.492700
-8.587300 20.682200 277.901200
19.826100 37.401300 291.704200
-25.735000 25.436500 307.716500
13.236900 51.286100 296.137700
16.561400 49.520200 294.278400
-14.396200 75.572100 312.414000
8.740900 53.690400 255.138200
17.600500 20.717400 272.587300
28.612500 65.839900 287.911600
-24.123200 58.370200 276.992900
-5.068000 21.448300 307.193100
-1.431400 76.182700 307.521000
24.862800 62.414700 313.588600
21.864500 59.898700 313.213100
-20.497300 47.047400 291.340000
-18.649300 62.146500 293.210900
14.915500 24.525400 263.931900
-22.814800 56.073300 280.983000
34.616500 24.540000 294.329400
-13.648700 52.086400 263.271500
20.415700 14.787300 308.549000
24.125100 16.961900 308.665100
-15.293500 18.045900 287.696000
-6.468600 55.848000 260.583700
-23.549100 31.816700 302.542400
-15.926400 38.082300 273.943800
-17.887500 34.806400 309.002400
-17.217500 50.514100 266.921900
-6.786500 49.478500 268.785600
-28.498700 69.573400 311.517700
-20.838100 58.178700 280.135800
-27.101800 69.341000 297.989700
10.851100 34.239400 271.722900
-8.541600 54.755400 266.513200
8.557200 33.423300 274.290900
-35.467500 51.755300 303.555600
-29.142900 66.783300 299.719400
-18.166100 74.839900 311.003600
-5.459700 11.991200 290.871900
9.874800 53.152300 294.457400
-14.861000 12.182500 306.901100
15.653400 71.441700 311.389700
-16.464900 56.700500 267.979500
10.238900 11.170900 292.868200
-33.080400 38.298800 309.108300
-30.521800 67.332300 311.921800
-7.396500 17.960700 280.523600
16.540693 60.956034 290.929166
-5.295816 23.354151 293.239457
8.908233 22.897465 296.469442
-9.685380 33.108271 282.666746
-7.355601 42.310090 298.495058
16.483501 25.301946 289.088267
18.011202 59.051575 279.970514
25.075976 56.680669 288.632287
5.802574 61.064115 278.859152
6.380677 66.096932 290.696715
20.332869 24.168912 299.121277
-8.170252 32.191215 297.358845
20.013845 61.554643 300.454938
15.595949 26.568864 279.918584
-6.470081 52.750104 296.290326
0.994815 26.847000 299.863017
-24.491751 36.593615 296.997822
11.553200 30.781260 294.405203
13.065730 58.721427 285.107742
29.992650 51.866479 300.774019
26.512187 29.905084 291.776571
-7.677197 40.906217 278.660008
-16.157497 29.852720 288.334710
-3.940305 52.098375 289.074451
4.963247 66.389525 302.266062
32.475639 46.226772 290.359450
2.186092 16.875706 299.588380
1.081742 56.543144 270.566877
26.593024 42.120363 269.330532
30.140024 32.437788 298.848409
0.419969 21.446071 287.286507
29.355911 51.610643 283.460774
-7.827239 35.741935 291.128624
13.438919 62.655916 305.164154
23.772004 49.971646 270.218201
31.747725 40.240392 303.357491
-6.371652 41.318785 268.020236
23.439510 27.099544 284.262172
1.129765 58.639115 283.915931
26.800785 58.145085 296.747692
13.777958 65.695940 297.853314
24.615579 58.802191 306.161211
32.305385 43.543977 280.307020
-1.846651 46.407361 263.821195
7.788727 55.256195 282.932233
33.103482 37.957616 289.783188
-13.106072 23.600520 292.760714
0.506203 68.426676 291.927963
17.134484 29.544470 272.751934
-5.384107 46.972707 295.367307
12.816114 56.493619 290.488657
27.089181 46.221338 305.402787
-5.461803 57.320485 302.948028
-3.920479 47.775084 277.998658
-4.754155 59.820883 296.388872
12.835010 54.752837 266.273931
-8.348827 18.370356 295.247244
14.511643 18.824879 300.452849
23.530698 55.697768 276.416839
-10.022636 36.911050 302.571557
17.377155 31.182474 291.624503
28.207218 49.569023 276.297844
-9.310716 25.940149 286.146271
-8.709392 33.841247 274.658693
11.243805 26.500005 302.285537
8.506547 65.419129 283.806252
12.021805 60.235190 278.473585
3.120389 63.577050 286.825021
25.322356 26.526367 303.428816
-3.914096 40.560730 291.033888
2.871204 64.071044 296.049538
-12.425777 39.706088 293.814402
-2.803553 69.991248 305.114586
29.572248 32.164423 284.308169
10.767574 62.238323 292.618532
-3.240541 31.898668 302.418570
4.343954 54.035097 264.514088
30.950434 53.142716 290.120446
23.138274 29.359980 277.165672
0.017415 61.380953 305.694289
-29.039980 50.350946 303.661456
-10.128676 46.630723 303.103454
-26.325586 54.633080 294.623483
11.524172 50.416806 261.031884
8.622034 25.213937 289.580967
21.133794 61.772208 285.660190
12.429964 21.862578 281.620027
19.477466 55.435760 270.697444
33.683729 47.195660 304.618841
20.780146 49.659702 263.987511
-25.291706 61.902543 303.346999
11.873903 29.409823 267.266627
-13.372731 37.173684 283.970440
-8.042021 37.612947 285.466581
22.980753 23.339793 291.527393
-13.853996 32.590805 293.936156
-21.624769 34.305126 289.375966
35.181451 43.871680 295.907764
6.951974 60.109234 271.716350
-0.713379 61.969754 273.512370
27.828449 26.509375 297.237454
-2.479753 40.082474 263.095109
13.210968 18.057539 293.590891
29.703115 35.278132 275.889993
-28.682631 43.895352 303.198918
24.334792 34.724492 269.795710
13.791606 65.994401 288.204211
6.510676 21.139669 302.488419
-2.046783 31.627723 295.934359
-2.912029 53.628619 267.489505
23.878806 38.651288 264.373800
-3.421121 25.090972 283.484975
-28.236122 49.033315 296.740302
-22.207522 36.497139 302.352821
-26.568051 45.890221 290.997764
-2.793875 17.594155 292.253676
11.851255 25.596856 275.878750
15.111024 54.772706 281.863264
30.362265 52.436090 307.097451
10.582484 68.849574 303.093563
-0.231596 50.902571 273.425171
32.267966 31.814966 290.365111
-4.249595 15.112092 298.686374
-10.184628 22.851827 296.891212
-6.643441 28.299914 276.162783
28.531582 49.582445 294.922768
10.598961 54.159352 287.157349
9.738441 33.086083 261.558342
-0.921612 58.517554 288.872276
29.888182 39.022230 295.159804
-10.974749 44.045479 296.114290
20.360600 56.210424 292.971271
22.260143 64.508859 305.254043
-24.097386 31.904532 297.801099
-18.819003 25.484577 292.058736
10.152034 15.178469 302.502044
-13.589595 33.885771 274.823603
-28.171039 56.674789 304.986615
-16.314867 38.153173 288.188669
26.364308 35.515042 304.518978
1.427298 35.516951 261.076024
-4.901304 34.010505 269.079024
19.306562 31.573250 304.157849
-14.884736 70.917600 307.445604
-2.770733 70.688619 297.860958
-0.385255 22.444837 303.468002
11.579734 34.389843 289.547594
-5.568929 43.427397 283.727079
31.772850 54.943711 295.987639
31.266000 42.759957 273.882649
-13.879006 28.185940 283.140953
6.214895 29.364208 303.431769
-9.171480 30.944975 303.256389
-23.819001 63.287738 297.758215
24.395971 44.727110 263.910109
28.993652 45.403972 285.331033
27.808904 58.886604 284.173542
26.349624 61.766921 301.373466
1.334785 44.702778 259.238032
-7.987579 20.811423 288.681790
0.362407 68.184113 285.155840
-1.182411 62.213793 294.159566
10.576485 66.456749 308.207698
-9.769680 52.274996 305.618128
18.889400 32.366159 265.888361
21.867272 63.672889 293.068717
19.430637 21.593514 285.659322
-9.639821 39.923561 274.149788
32.289365 35.075763 305.949318
10.543660 59.691440 288.549776
-8.586086 46.236136 274.833183
16.786333 49.429713 259.536021
7.753981 19.956318 281.362270
20.468869 19.297549 294.896496
-0.637314 65.860201 300.365364
-26.684001 33.694399 304.901299
-20.359614 68.739952 307.403998
-14.837355 16.735527 299.439189
7.978616 44.883107 257.626793
15.757639 57.858077 298.103792
5.739586 17.483326 293.803643
34.164788 49.321968 285.755552
17.763635 63.795778 308.371479
-1.443795 51.285573 281.973967
-25.084069 60.005302 293.434485
1.862238 50.285288 260.812515
20.139497 18.428477 300.461222
-7.573957 71.786594 307.938562
7.144322 26.448276 267.976574
16.892073 34.479053 260.628372
8.332196 57.622016 276.575764
-12.255998 28.806857 298.605556
13.265439 30.722796 282.490211
-20.181293 39.485802 295.306840
35.035112 37.307823 300.158964
-5.644804 49.389026 291.876096
-2.383848 42.896258 279.372671
22.025593 31.186428 292.237751
26.051696 44.962791 274.792473
26.745307 48.878121 289.275742
-17.935321 70.058405 302.487740
13.649042 60.012173 272.097710
6.938309 37.426100 258.389486
8.326310 34.212521 295.302081
3.875516 69.914064 306.408057
28.441988 59.675203 291.749651
23.961407 54.076263 300.053889
-10.549091 15.853635 298.126823
30.338917 28.543382 302.669949
5.600483 69.259508 297.088617
27.670751 28.689868 280.365610
1.605346 48.820596 268.144851
23.140972 38.083394 306.657940
8.622277 29.784879 298.718486
-10.398708 45.311530 270.378208
-6.783168 63.312687 273.764461
-14.791196 35.849090 304.339466
-25.284687 64.980116 307.785665
-17.096198 35.153207 298.808237
21.688967 53.587083 284.582285
-9.581171 51.579950 293.937379
0.125702 12.688754 302.009451
-1.656479 56.809975 275.242420
32.321584 28.993597 295.857789
-7.175631 44.256432 263.781382
8.854622 63.121236 299.488182
24.832216 53.918217 307.914288
35.070962 42.522929 286.376029
15.147039 31.083686 277.330565
20.432958 51.356053 274.558170
-6.260362 41.100072 304.345086
14.444292 64.853518 279.126366
-26.162863 52.818591 300.219184
26.272289 24.252354 287.657809
24.562724 52.679434 292.721658
30.010742 57.409805 302.457891
-8.585859 72.068050 294.685327
-3.954504 65.104049 308.033269
6.236115 21.251697 276.768772
-3.042495 37.869059 299.111300
2.992029 64.967852 276.392338
5.638213 62.093393 291.318117
-9.765471 37.651316 269.078762
16.516170 67.742471 294.018871
33.499810 37.138078 283.063085
-11.515636 49.988259 299.278332
-11.326545 41.787581 302.283051
6.508946 59.188516 266.389457
28.831971 37.125143 268.697694
-2.660213 36.152653 293.468607
-27.339010 41.776886 295.452719
-6.765865 26.225935 300.465288
-20.840089 67.615501 297.000128
-27.230790 58.651361 298.770071
-1.800922 28.416750 269.862948
-6.200887 51.195646 264.379893
-25.619144 53.185373 288.453386
34.787472 51.560823 299.177260
22.315459 45.284198 270.618998
-6.540118 31.054021 287.239550
20.440636 26.281127 305.244763
24.437809 55.420594 271.484758
36.912119 43.659286 291.188433
12.469835 19.387313 287.446283
3.613313 30.712668 264.341797
-23.348843 66.871494 303.184942
0.658104 59.836421 278.837800
20.358789 31.760145 283.232567
-20.444450 66.730195 291.762728
24.971086 21.602035 297.789995
-11.709239 42.198025 277.824264
-2.458308 52.974256 293.595728
27.746612 60.920469 309.379339
21.835166 29.718444 269.863763
28.693959 46.511539 300.095982
24.549519 49.444998 279.772671
29.808833 53.861804 278.781973
14.635767 49.807324 265.017536
-26.087065 36.606982 291.068447
8.687808 23.484618 272.819704
-7.726107 44.264634 294.256876
-2.252016 27.101190 304.528967
6.632923 62.409801 307.643905
9.348291 57.489720 285.639145
2.938294 52.444761 279.274503
-6.620896 49.434224 283.506750
11.737923 36.080084 258.098462
-3.152402 36.922894 304.911215
25.994753 30.809417 272.835575
-3.302181 65.969356 277.255027
8.240589 64.228253 275.595053
-14.802198 24.663020 287.750147
25.528089 42.707096 307.293385
-3.963566 56.807851 307.535031
-5.744465 57.899092 291.606246
16.052608 58.445167 267.772278
8.993433 68.470180 287.462850
23.283658 21.553829 303.878774
22.374364 24.827448 279.669009
5.307163 28.002728 293.884652
34.669423 51.959913 304.685675
24.509715 30.570688 299.485879
-4.975541 57.421805 266.396958
5.400261 13.336363 301.579738
-14.469611 19.191362 294.966942
19.143529 58.677783 306.845393
33.657944 38.927058 278.071222
1.216749 26.202370 286.328240
28.118942 47.543973 267.798155
-2.140609 43.250611 267.299863
-1.681038 45.465451 292.169709
-8.627347 57.001124 297.494841
-7.979242 39.872531 291.534579
-13.511798 49.062261 305.743862
-4.106227 19.982034 284.867430
-8.692248 25.579967 280.599435
21.182824 42.966676 260.010961
17.112768 53.834778 287.918763
7.344515 62.588729 295.306987
1.993243 19.753905 281.505595
-8.356887 60.031068 270.609074
-24.868840 54.906952 284.395900
13.033273 44.312062 258.114106
22.914331 65.468647 300.377196
11.385852 26.487924 280.227409
-20.864858 28.137112 287.810555
34.494110 45.249120 276.450730
6.915575 54.357770 286.251806
-3.144597 68.648820 293.566548
16.228109 33.161245 296.183519
14.548726 24.382720 305.074479
-5.556223 43.733218 289.070153
-2.521970 41.897187 295.669092
14.418732 56.762785 278.197268
-4.371603 25.763561 272.867321
1.537995 61.588078 290.051064
-4.737424 56.324512 286.811315
-1.312076 64.958945 291.300930
-3.091662 52.554084 277.571256
9.812487 28.871327 285.900687
24.987318 33.982800 292.174765
-1.330912 17.236523 303.286883
-13.322008 72.388431 301.548522
0.172157 63.124162 282.895901
1.006454 54.660951 286.253718
16.931957 16.454687 304.084658
13.136246 29.645238 305.559498
31.476080 57.017155 287.562116
16.881947 51.181923 270.738269
11.288840 53.198799 282.115891
-1.907597 32.949069 264.601040
15.414251 35.471525 292.120875
3.201852 33.045216 305.072588
34.584460 35.909493 294.767250
-10.403987 71.140944 298.331117
-26.618104 57.587159 289.705818
-3.382109 27.556574 290.165959
-10.112613 46.655202 280.445480
-19.338317 31.640291 283.800579
34.237718 41.051125 307.695290
-14.725260 14.944749 303.769962
-18.406599 20.177606 298.103376
3.631947 13.294204 297.260696
2.345700 61.412243 269.202915
12.915732 61.379051 309.488149
29.062867 39.208968 287.764747
30.754189 44.971132 308.099725
12.833078 14.971615 297.818690
-24.903152 31.496658 291.674707
31.473320 32.497440 279.674945
-0.689816 16.933921 288.086220
32.753829 28.943894 286.793726
-4.850010 20.377589 298.684576
3.816423 24.627767 304.506130
-4.133391 38.772535 282.554155
-3.254479 44.473587 259.519107
6.710773 51.557284 259.425282
3.163498 40.468050 257.502373
1.681577 27.300506 267.152140
30.041239 43.954315 296.007780
-1.523481 48.076049 288.169927
28.249305 44.615130 291.101349
-31.838075 53.121841 305.814525
-7.592415 44.984822 306.434786
18.758184 65.912852 285.858539
35.104846 48.902368 308.645255
-24.831660 59.207865 306.973777
-4.186892 23.458185 278.560365
23.350854 65.075983 309.642377
-11.550417 19.057830 291.022853
-5.452583 53.242796 304.834805
-5.118654 38.154310 272.240825
28.025619 43.008997 278.537037
5.805035 71.184688 302.302874
24.450228 50.902389 304.023414
-28.530728 51.875389 291.722721
21.901330 58.800651 273.076147
-16.015834 71.314762 297.737615
28.889425 25.982329 306.107136
-9.340844 65.870158 276.914218
8.436671 69.964492 292.026228
34.453697 31.697640 298.756388
31.900698 55.356812 283.311564
-4.718835 50.003261 274.034647
-16.908075 29.424843 293.043619
15.064136 58.472591 302.999553
12.022666 30.340481 273.968561
-13.527216 43.261740 305.813758
10.085791 66.124451 279.287962
14.680937 55.403485 271.285137
-7.732920 60.317074 308.408417
-5.612497 52.856762 270.715358
-23.719088 60.433053 285.452268
-2.471562 68.978396 288.754299
3.210076 60.087285 286.360753
6.644452 61.178844 283.427413
9.560623 59.226106 294.816177
34.773042 50.428530 292.235103
17.030232 21.315213 281.138026
20.458281 54.493249 265.731698
14.460910 32.025458 269.988238
25.511530 38.002900 274.315685
-5.055311 30.134732 281.750200
-29.931295 53.060289 297.487922
10.958436 21.319478 277.300866
-30.535994 56.249167 301.257268
-25.839224 53.027037 304.828560
27.891097 38.570252 301.356389
4.278681 69.012362 287.646080
24.376292 63.599241 288.874390
20.673122 19.518022 289.605262
-3.651352 43.645857 273.484789
17.718334 61.141998 275.184351
-6.811888 39.907519 263.618460
-7.650353 26.968801 304.859451
-6.598702 33.947662 305.622839
-8.754369 59.463048 301.079132
-7.473144 37.344793 296.197982
25.034135 23.220748 283.340767
9.600854 56.870282 291.091415
-3.246677 54.902868 299.298265
-0.493752 46.652106 275.199937
28.879630 51.506362 271.551393
12.078154 25.206953 269.393344
-31.506059 46.692419 301.333932
-23.062278 26.647283 291.805751
17.040437 45.756226 257.391477
-14.199335 25.359035 296.656338
10.483160 61.501915 269.066291
8.312958 33.375991 291.469083
29.087352 60.976536 287.704718
19.406538 35.523285 306.624864
26.153535 49.639622 308.150105
-3.085511 50.233577 296.742805
12.087259 33.898690 298.033890
36.240262 39.928375 303.955537
13.489676 50.452985 285.291414
22.048367 26.420687 273.569999
-3.707635 61.802789 302.661773
36.956723 48.077471 301.994652
-27.714224 38.813839 301.021259
-28.636953 46.945528 306.082547
-23.856346 42.082926 291.659034
35.445015 34.357683 288.456032
-5.548291 14.954081 294.471594
-21.054078 26.373273 295.643044
32.845750 56.475770 292.099314
28.331384 63.161843 297.821708
5.002657 22.239808 285.071062
14.486720 65.837881 310.172627
7.854204 69.724605 307.925737
19.495693 55.924780 300.527211
28.830531 26.474771 284.164329
-9.572882 33.296604 270.259536
23.894423 41.984914 272.722888
7.259308 17.471084 288.382536
-13.438040 39.442990 280.456024
18.315754 39.023543 259.437649
-13.949193 47.963638 269.034938
-5.147000 37.138719 276.987872
10.051003 59.881887 303.426117
5.128765 53.607219 269.539482
-3.598611 62.802933 270.523255
28.499240 24.152952 293.167294
-26.299342 44.465924 286.187595
-8.660583 20.027060 298.338176
-23.127642 34.134652 300.133436
29.410777 38.539677 306.955103
-24.438299 68.065924 309.489204
-28.927828 62.764851 307.754096
2.388050 58.078197 264.929841
-29.097705 60.222864 302.298663
4.391805 54.802702 274.997352
-1.933951 42.377569 286.458828
17.514054 67.487711 289.601758
19.013518 34.425817 270.649402
27.209035 42.868155 302.430721
-6.459901 49.998754 300.794789
-27.135396 33.083759 300.777613
-5.939087 67.764357 280.691920
3.621791 30.789965 298.286492
16.681037 26.903781 268.881503
9.562704 24.945165 305.895197
9.747048 50.898587 265.655987
9.154878 30.459627 270.467401
15.447330 28.701131 264.932351
31.158931 56.996373 306.973031
26.540958 30.681898 306.100669
-14.062782 30.573277 278.653845
-7.983737 48.507212 294.031958
-8.723642 47.111929 297.948822
24.827331 32.796643 280.373029
7.911443 32.052358 265.799440
-23.863985 63.984319 292.026788
-25.666727 38.925390 287.105146
0.375234 23.724305 281.964329
-17.809592 26.484250 285.341087
14.667567 66.690689 283.525784
-11.801565 63.315209 274.773230
11.065850 30.057492 278.044536
11.240064 20.213405 304.482113
-14.725790 69.876342 289.827502
-6.097603 61.998309 294.033043
6.236877 68.850574 283.991109
-2.654356 35.452787 260.822658
26.468519 41.344940 262.231034
-11.300761 72.910660 306.003725
11.396226 36.720875 293.641901
-4.705348 69.037598 309.309369
4.462352 22.112717 273.193323
14.751660 69.682819 297.235480
16.663749 67.770754 301.850213
33.508515 55.163287 302.298779
4.379603 26.578949 289.448123
