-27.799923 57.287986 271.796943
-23.929288 41.432035 314.492957
16.634655 6.732137 288.566152
13.853187 19.802296 260.669867
21.961939 16.179878 312.744407
-0.780207 54.120351 250.632375
-23.458948 77.467582 292.687100
36.482162 43.610345 258.707909
12.367737 41.129207 316.999844
-12.657113 4.208499 304.856540
55.020369 22.335450 121.783368
16.206962 71.035448 267.566914
34.951304 35.745850 260.655350
40.524614 60.544835 287.740100
-29.060766 16.550456 302.722692
26.630428 61.703109 260.471835
-76.158364 -5.624946 164.352312
41.782832 56.338666 307.168501
8.409025 28.697600 314.823880
32.118586 39.139195 316.684885
-41.020503 -32.234737 253.818599
-11.047913 69.905914 268.488520
43.060899 55.242540 283.076367
-30.465592 62.994162 282.024625
-34.851564 60.524571 288.295880
109.653447 44.558624 306.698509
20.890029 37.872687 248.652549
35.696795 62.735221 277.969783
-47.509795 27.616172 339.006834
-5.879182 71.541783 318.541832
2.704742 -2.947447 280.541915
4.706099 36.761497 277.296920
-43.492570 -15.083812 336.813699
-11.793670 -21.838618 337.237056
-123.450477 110.759410 318.244070
44.270686 36.485778 278.976486
13.082551 33.327008 314.341928
-0.703108 91.199753 105.008354
-54.436563 113.587597 173.641488
58.510127 55.424903 53.087797
35.195651 50.380959 317.175787
-38.780333 35.390024 299.627935
-7.287379 80.775110 293.495903
-0.889409 57.621235 318.663243
43.600948 49.191481 278.120568
-40.843372 48.679037 303.266764
34.636604 66.290162 287.453044
19.974127 76.216964 292.849498
-26.741851 25.682223 312.351071
31.473168 18.368148 278.948283
-113.066573 55.145101 121.567893
-17.791348 16.057451 282.490521
41.398593 38.649412 314.288138
2.036896 64.699031 257.976428
-53.075018 115.935266 221.494281
-25.442729 11.309232 306.945008
-30.135770 3.568579 314.581179
-17.004928 81.220927 308.286831
-11.538128 17.204728 310.792254
-23.280236 36.550543 269.063276
45.439471 32.632126 295.773061
7.396295 46.203296 295.155989
-4.229307 45.503350 250.207780
-4.592472 56.943763 254.074964
-38.751688 2.950306 331.839097
14.027677 46.730646 310.202717
-12.981931 63.142939 316.733975
-127.912969 70.662429 282.052654
1.069463 63.320295 214.575994
61.138662 72.780626 383.668231
-2.352854 77.781534 281.972996
-9.484715 4.583828 299.168434
-12.000705 11.551690 285.166113
28.435160 50.698518 317.501301
32.314893 14.476351 294.681714
-29.775081 30.217847 278.212983
-40.300000 53.063772 29.569184
3.964060 74.002180 273.459065
25.229000 91.694336 380.814879
-22.043090 -45.740655 121.411659
-110.888957 85.578267 171.877310
20.535167 46.805513 249.870168
10.778958 54.812789 249.497174
-76.232504 -6.987762 212.036220
-11.711225 24.207746 264.765167
-57.900000 98.452830 383.059462
-3.393454 -0.600000 28.938842
3.831067 49.909472 305.026615
8.411725 79.279947 308.021893
8.763078 57.831187 317.051603
6.362760 20.187340 313.609533
54.217759 9.793951 58.808451
-93.137074 29.770822 292.682053
-0.532802 80.357962 290.866884
13.215196 41.901815 272.655739
7.841957 42.041155 280.197907
11.754054 4.473570 301.784848
16.421693 -28.264061 236.872310
-11.957667 5.634808 310.693930
29.910247 44.310382 316.977304
-27.621573 67.186034 278.414200
-16.868745 59.342795 309.569345
-45.237365 -33.275408 58.238189
-39.824041 46.193434 309.133283
-41.893367 47.521211 316.468168
-53.159073 53.005134 323.619023
-13.045113 35.676184 314.215382
11.672003 41.412349 308.091097
33.265431 45.183908 233.889940
48.878343 39.630956 203.164534
-18.899497 110.570486 150.545344
13.488920 8.773629 281.192115
5.381050 72.360558 318.404531
-36.303501 45.722505 313.446282
51.328333 83.593932 160.224611
-51.590142 101.973661 128.759542
-19.970595 47.179991 313.796354
37.459006 51.554751 263.173012
-17.189505 71.847693 275.125937
-23.495314 72.319016 281.368063
16.544562 72.558760 275.921529
-21.209140 77.526013 315.004075
38.907243 20.311244 291.252375
-39.635059 7.679842 292.086232
-15.731946 54.618840 257.863765
29.565686 57.041630 318.404889
-27.818865 88.278738 310.183567
-36.945961 67.063757 264.245150
-51.727201 65.982335 248.506263
-85.354620 62.832926 244.398893
-149.744977 83.210216 340.738141
13.907222 17.727112 313.546071
49.671936 40.830435 255.823804
28.936508 71.038016 276.739059
1.783036 43.913149 248.159940
27.670522 13.969270 286.327388
47.553890 46.832644 339.171378
-40.389822 73.482773 317.083092
-53.003820 84.498124 320.950247
-81.521761 75.938978 320.120815
26.469175 42.294267 211.127417
-46.975753 -7.910092 282.215712
-58.453778 109.301783 312.545305
-14.449894 59.264709 285.591374
-10.438397 -35.583659 296.050934
-128.633056 -4.113138 339.952724
-34.356834 57.320087 316.801716
-19.719705 27.502341 310.645127
29.877568 103.440182 173.108697
0.589461 4.547616 310.958234
29.139015 64.105797 271.611101
-1.248970 29.403515 252.369902
-17.912540 65.894167 267.807572
-11.673523 53.857792 316.603974
-6.653106 80.233439 343.244376
-111.897216 102.044866 220.091434
-14.609057 29.410640 264.320209
-113.265665 98.718051 361.832293
-9.626628 -37.352953 259.292064
-23.492523 11.724499 295.833694
-92.868754 6.534458 141.747740
30.994878 27.255424 315.247116
30.279101 26.512258 262.681561
-27.667611 73.616849 292.268531
36.331100 29.151929 313.667922
-36.336379 -38.076859 153.468656
40.852554 -7.891594 210.037106
6.483532 8.634094 280.166544
36.603885 28.161751 270.183795
-7.354359 86.451437 324.795626
-27.104107 20.420762 310.707124
2.510228 18.291952 263.543815
-16.059921 42.780966 327.010591
6.311433 41.029954 304.499780
-19.139318 37.251975 263.497483
-50.170202 100.897235 352.677461
-8.484941 6.395896 293.352390
41.090201 36.983653 269.257477
-82.982378 88.621765 135.302621
-28.334134 51.668261 272.627919
33.140074 65.696964 254.050843
43.855188 74.690000 239.681303
47.401450 72.989734 257.223466
75.879329 77.155200 261.779390
46.292691 38.298386 293.498311
-21.154516 47.445472 186.566301
16.924125 6.226396 300.316761
2.772518 117.478610 233.412824
-12.341879 -14.163700 359.499062
30.849060 3.497649 325.366275
40.156118 -5.742896 301.613418
27.900681 52.715133 255.736613
39.303030 24.207107 296.005120
19.362845 25.211357 313.902903
-8.865279 60.842562 258.905997
-20.387249 35.144926 313.458250
22.838090 73.594284 317.003028
-31.772322 101.740311 29.456817
43.403066 47.108639 310.924147
45.971184 43.635807 284.783252
22.383367 47.954865 317.108581
-96.766379 6.247039 238.013992
-98.499820 11.928074 183.005460
-94.371301 27.106085 384.455363
-0.540978 21.429295 312.669885
32.353664 16.112718 303.730056
25.378179 27.884109 256.677689
-13.876474 119.917062 277.965292
-44.864816 29.840421 228.874663
9.789985 29.529680 250.619686
-19.738272 -42.853936 49.630162
3.626598 37.811369 313.967196
19.700000 95.696214 27.385623
11.095591 67.356507 259.527734
49.665351 102.003867 218.277532
18.112958 22.857969 260.081603
19.462203 33.427418 250.757705
-80.601682 97.959211 168.583002
-3.899613 53.675772 316.664154
-66.975405 39.400000 28.096136
10.685450 11.714456 277.824256
6.284760 66.544745 318.888398
45.949982 -12.476707 238.039861
16.053538 98.349357 265.896789
55.493066 9.187613 310.342253
38.295233 6.114596 248.645216
-46.203613 -39.459588 100.874828
41.039632 28.058623 281.105803
45.089770 50.744198 296.060410
-16.853694 46.245320 259.367505
-34.687977 64.606416 326.727611
41.270914 26.558565 289.469805
-7.232686 82.861616 301.901993
-17.893798 24.624239 270.627013
-111.845006 58.833193 145.724659
-35.856845 65.587933 303.122438
-42.984663 68.502899 303.888178
-8.963776 39.689047 253.903340
-13.914269 77.366619 316.575283
-107.392346 44.120310 190.834380
19.717745 78.133527 303.671490
-16.688011 26.224227 324.051311
-11.769957 49.390793 255.270289
3.364879 29.199594 313.402389
26.497255 71.002649 282.226424
11.431468 59.400000 27.732202
-7.681462 10.259006 312.438911
-40.300000 -5.425128 27.247421
-66.967850 28.137401 292.232785
-36.106101 64.693662 224.289741
-35.639987 51.090080 282.893991
6.291301 5.769868 295.108223
43.900225 19.084189 314.463444
-95.208528 24.034960 79.699844
20.888909 56.164915 252.193222
38.082304 -12.848252 134.849993
-38.111425 57.946034 300.333188
-29.517041 24.150071 309.396233
-35.639090 -11.160665 321.870412
-21.805930 69.637235 277.578398
36.846769 -10.710953 342.150294
10.083094 41.296240 267.993176
18.875818 44.951020 298.063724
17.441792 43.696110 288.910647
22.440089 -11.363093 292.773168
26.370863 -26.022054 271.684402
40.376858 -22.732979 288.014236
-30.185413 39.044721 275.938115
-5.239187 75.873331 276.250272
-1.789686 21.080594 262.900534
12.951307 51.921393 315.417628
70.667798 64.994931 170.077620
24.393558 15.024084 278.895300
-23.597149 71.357700 316.489347
-31.760776 23.208060 292.564193
18.619348 17.019847 268.541045
-16.873782 79.522705 293.269047
33.527048 1.990555 304.735548
-77.900000 66.034193 375.253006
40.796741 59.400579 302.868314
-38.352995 55.051181 312.978145
29.058621 19.527406 273.859867
-3.760416 33.717325 252.352899
-7.639068 27.371846 258.804144
-36.561822 56.921540 292.265424
-33.537987 69.176334 309.309511
4.430671 51.133157 248.375386
-31.806445 38.817307 313.796578
12.659603 60.995037 316.879461
60.200870 96.671355 363.166147
3.860331 -41.976120 111.966762
24.395375 57.531673 317.297528
20.435133 78.173284 262.349403
12.542631 68.126734 265.237217
33.151549 39.208274 257.242903
-91.834930 31.270767 119.946678
-46.576730 0.086086 311.115410
-15.442184 14.964422 310.412248
-21.067063 11.726363 313.195728
17.895730 11.648520 281.141165
27.717643 82.554322 319.197057
18.560337 91.982230 328.418612
29.025802 112.819809 321.644971
32.339609 103.104435 344.918498
77.842770 0.934201 317.066281
43.601342 30.804705 291.293356
28.393621 89.863070 267.549013
-70.122922 3.931821 317.859224
7.622731 44.142367 286.881202
97.353117 84.499180 289.631159
-56.902067 78.828541 284.137090
-76.621163 95.225215 265.674355
-6.316318 47.223993 226.646227
-21.104961 -51.965616 99.511590
45.069503 42.951446 296.658034
-131.113952 73.226448 216.120819
16.795804 7.081260 295.114033
-54.278768 27.099028 301.802801
-1.230801 100.975890 129.492740
-18.723938 51.148795 261.814189
-0.149177 15.915531 311.978498
-27.823774 104.875761 361.101104
31.701971 47.319348 257.354456
5.916722 39.843924 270.087980
71.791862 59.548586 108.700948
64.019476 39.589054 112.179953
55.779045 72.872559 112.068838
37.798367 59.425390 313.877959
0.134731 118.423837 193.748393
11.360697 48.756816 302.089698
43.405597 24.880856 260.238932
62.232363 18.062128 253.475600
40.585855 47.530784 266.965729
59.041051 27.260515 166.369349
43.571046 51.244663 307.624551
-29.721981 24.583878 284.327015
-18.355240 63.374942 316.436603
9.162774 78.072713 291.556692
16.418431 41.805441 249.015864
-147.939101 62.042645 308.642674
106.693638 5.661611 334.000611
-30.579641 73.582164 303.345985
-5.386931 9.978100 284.143870
36.398458 64.662368 306.677583
-3.112427 27.279094 313.059670
34.974446 68.787587 321.015743
36.566136 78.822791 324.662719
33.597074 83.029428 342.032467
50.663037 87.077502 329.813952
56.435033 109.985336 320.897749
-30.955619 58.603123 276.764413
22.702674 63.598876 263.179626
59.700000 46.233708 26.316619
25.052206 74.328132 291.905181
-22.334191 18.391427 284.218168
-13.473314 68.611208 318.084462
-23.314997 19.400000 25.666787
-26.086848 84.728298 318.823398
-7.138453 101.257080 330.539378
-4.896887 100.966523 353.306290
-14.846428 115.252374 313.923793
3.131969 14.993106 267.958106
-8.866532 8.837818 288.999510
13.666702 27.321872 253.183971
-21.323890 83.426161 288.662643
-25.557181 92.837360 281.774320
-23.709447 49.654317 210.311619
-21.190278 14.009390 201.785602
68.996058 107.048758 278.541153
-36.498865 33.269392 304.343033
-7.815295 59.610691 316.389282
-38.898253 54.782530 304.662052
43.230383 43.590246 277.267024
-38.790752 42.420212 302.429100
9.239162 38.033040 247.997701
112.536158 77.469681 338.771167
-50.381763 -30.656325 225.205379
29.052137 -25.341799 51.840104
13.174590 75.874787 312.304327
-95.304919 4.197971 27.643781
-18.871750 56.552877 265.012133
-23.882555 55.289681 262.393870
-28.761540 54.700691 254.020113
-41.504153 48.929837 254.190328
-55.580544 47.355035 237.168326
21.165757 60.855416 257.225846
-11.792637 20.229325 272.387479
-71.861347 -16.741776 60.969581
32.702884 66.629985 312.776979
-12.565627 81.261456 302.192545
-39.703437 53.279437 354.323730
-11.423623 -39.970464 213.935552
31.698555 -28.737977 107.037794
9.325784 41.214049 327.027674
3.700822 48.028558 342.400882
49.328446 58.810424 310.255723
57.564586 68.349449 312.437462
68.497290 66.309276 328.466656
48.610011 57.572631 277.501119
53.605784 63.175980 267.312257
73.152920 56.768027 264.553255
75.879579 54.920585 234.558538
-119.043790 107.701837 287.828144
46.090907 75.265907 72.198753
20.550090 74.655590 288.368577
-26.079185 37.309296 272.980440
-8.423452 46.849855 243.908847
8.193212 75.605219 277.063488
58.209525 35.058629 77.086923
-3.842812 79.309257 286.841692
-10.622502 31.462274 313.332355
-22.296125 101.539962 310.887184
-33.513351 114.283146 322.478984
4.280858 74.582785 369.410256
-28.268797 46.529338 272.477883
53.829234 43.100004 282.514668
66.161439 52.161383 283.016212
64.464229 35.077158 283.201442
88.461713 29.281614 280.397078
72.148613 19.071317 271.969810
-62.083535 27.997149 270.964184
-28.513379 22.365573 289.092589
-15.481771 18.722444 315.512028
35.870605 67.552938 316.376936
74.755238 62.955191 311.898769
-10.309193 41.364575 234.795817
-11.179441 29.719367 221.522505
2.825160 13.716281 208.497541
20.427021 43.336292 293.555936
73.117420 87.882384 216.351228
-20.205412 21.639930 310.562662
23.728675 68.083217 272.298488
-19.135470 40.308496 313.417935
33.413941 70.079000 294.987773
-34.880673 40.957579 282.808216
59.700000 10.172387 25.733897
17.770163 75.740203 309.746748
32.716209 49.527429 243.739779
44.206987 58.340042 234.596446
-86.150435 103.306710 356.095541
-8.148106 43.022128 314.566332
-3.877782 66.605192 261.476575
2.369021 26.487734 240.781684
9.174410 21.534366 225.347404
-7.099348 65.038486 316.891255
-3.553769 47.974235 313.111922
52.765081 31.345760 283.804092
-12.661723 65.967917 266.495624
-0.059954 5.946055 295.823697
-24.979728 45.966955 314.044211
9.081603 24.346986 312.882928
12.761549 27.539679 313.176895
-1.396987 73.794700 273.097167
-63.999177 -22.814639 195.692895
19.700000 13.808423 25.207171
-34.181706 70.386822 273.938999
-48.690790 72.504102 273.763882
2.047393 25.589920 254.570199
-10.971982 22.750088 338.540570
19.583080 51.771643 251.389330
52.335636 -3.334796 114.664137
26.654371 8.569511 275.911011
49.505897 13.986300 255.181294
61.981246 -3.908252 252.302487
29.825794 79.984460 290.051483
11.067835 39.392550 241.109172
13.757787 31.912760 231.149355
22.403874 52.954156 357.375565
60.603953 54.809596 312.528184
75.082299 45.817153 309.565952
85.954020 43.524852 331.305413
-8.565590 23.351985 233.281543
-20.292423 11.807026 221.742815
-47.169130 3.335216 219.258890
28.758164 18.226543 211.555629
60.073533 27.138875 274.224412
-16.559175 46.352250 288.966920
57.373803 7.360811 280.816583
-8.256141 27.074052 312.178553
43.543403 35.538577 301.439428
-11.772540 31.111879 259.855235
-106.351917 -12.131012 300.597206
-122.595773 66.612479 191.822050
15.441443 56.802461 240.368203
12.163406 58.365981 224.866066
24.855753 67.752747 203.383575
15.282274 80.419751 219.803669
7.982159 46.174002 247.866783
-26.519026 72.312634 287.786591
37.384443 23.981507 280.989658
26.367983 10.911345 299.182445
31.733185 62.882066 316.498830
-13.387425 10.194143 290.130384
-53.973153 -3.268334 385.394669
6.780781 76.335371 281.814198
22.148843 30.253005 315.195868
-0.671900 3.754960 300.090215
-29.821617 69.401215 315.420455
-0.152535 81.131679 300.708998
-35.307072 13.841398 298.584911
-44.778081 8.407639 302.432811
-34.077238 119.987073 237.632416
-0.174423 88.154825 288.855214
0.086115 100.864444 291.715995
13.829424 112.840632 304.986852
-7.471395 118.171482 296.206514
12.022942 13.336680 312.036433
-30.870738 71.052229 295.154976
-35.188802 76.562001 294.303589
-46.903930 87.066337 293.143092
-65.591168 101.087755 287.243241
-24.381613 41.056586 338.352214
-14.332379 49.812609 355.775334
44.785413 63.268601 247.464730
62.711728 68.494556 240.663676
-25.194989 34.114569 313.291278
19.305905 88.937994 55.919403
-69.010371 -19.485552 101.520239
-7.030368 43.941693 253.720151
54.345360 28.639293 253.879667
68.331078 31.485621 236.746568
-57.873386 88.757808 266.949894
4.214098 43.655593 235.361900
36.506667 89.516892 309.759590
-102.802117 68.858754 383.450784
-23.150289 55.337125 269.001570
-25.698633 64.036278 315.323827
-4.070287 12.018032 275.280991
-7.619154 5.181308 270.157103
-3.341764 -7.355577 266.555054
-23.845359 -19.650363 266.779075
0.014040 -19.766166 248.746619
-15.064623 9.285785 309.937001
-28.963354 73.401768 311.650501
9.623358 16.737958 266.395783
25.862500 34.138249 315.245728
-36.707673 41.948501 289.327104
-2.218627 80.143927 309.510049
34.778258 23.354593 274.152314
-5.580572 92.889823 256.457881
75.453908 72.151027 193.520261
20.291504 20.479069 265.013215
11.019090 7.010009 288.861983
7.866817 6.145104 268.037805
7.745401 -4.086948 257.551185
3.729402 51.210493 323.741415
28.173189 21.233502 312.530816
30.148245 21.366529 319.351955
35.978322 19.107099 328.881706
43.238511 23.436092 346.959261
34.366113 21.855645 314.217257
-18.263103 22.318148 277.668604
-107.993601 69.622234 51.994915
-109.942874 59.400000 24.809655
29.738363 71.017792 308.992325
21.835219 -0.297235 285.990233
21.125577 -12.415375 278.728666
2.983084 32.491905 277.711129
-46.843286 44.714502 325.374737
-61.559698 35.413729 330.544836
-55.175745 48.140888 339.716371
-87.171155 29.063520 329.609142
-21.260827 66.559756 260.662750
-27.823102 78.924440 254.556168
-32.240404 93.873647 233.027047
-20.784684 70.601189 249.878264
-31.682362 76.459629 236.987734
-18.728447 84.171048 241.924112
-4.084273 89.939108 225.937251
-76.211079 -16.240395 134.617488
25.243983 44.537759 315.573583
61.329911 -12.806711 307.100098
-5.382916 80.192268 298.090354
-51.525434 75.070312 300.774006
-67.939531 73.009816 296.001428
-62.553232 69.028021 310.252869
-3.319149 12.085317 311.367453
-37.263087 52.356138 292.377571
13.607146 105.618420 150.781573
-22.812484 92.494932 292.690721
-24.821698 109.712549 287.927362
-36.547022 97.098748 290.797149
-32.078118 98.965634 267.812559
-34.538962 121.262832 261.028943
34.889841 68.369912 309.054126
41.435978 69.383909 307.068592
45.904278 78.356670 304.144801
47.992901 70.058517 314.510986
56.236840 75.920681 323.901165
12.979917 75.421114 279.826046
-37.261770 86.251460 295.682648
16.274409 -28.468730 287.508701
44.723486 88.980431 295.068047
-16.029024 23.672079 306.263517
-29.669944 69.192867 290.533004
-29.820875 21.158338 304.103424
-31.802192 19.979693 298.357676
30.682714 -22.396474 188.265574
16.922230 48.547226 315.008998
25.054926 19.274152 311.477220
-26.971434 30.238119 311.015434
-32.312584 29.851996 313.062794
-49.851200 99.860999 51.123680
-30.462988 62.136039 315.398922
-16.640217 96.303450 75.914242
-24.580082 27.645344 276.671160
-37.565329 45.287784 294.075240
38.967536 55.534708 275.483956
28.701617 36.586921 255.558241
6.155741 53.419335 302.624901
-26.148147 15.830462 297.996002
53.309640 -1.092341 164.972065
1.605922 11.851657 277.636645
35.357842 20.522701 303.727436
-36.213355 41.690911 312.631465
-68.012233 87.469323 85.096580
3.991563 34.305214 248.831931
-23.929954 55.934870 315.098203
7.273086 -47.577555 77.416422
28.006744 12.793998 292.014799
25.868278 12.667273 316.010954
21.344958 4.852803 321.257170
29.951674 12.299804 323.974128
20.639559 3.111225 335.583562
32.054200 7.328292 317.629551
32.258282 32.039404 261.125234
33.634183 34.950391 314.998081
-122.573716 108.469094 336.128169
-100.753205 111.028657 326.276020
-35.755467 32.140023 295.311003
-20.892958 9.942500 304.536863
23.317872 42.735875 251.045713
3.145985 44.959419 306.240107
-10.706903 -1.724281 313.657773
-10.081019 -18.385260 317.969280
-11.228827 -7.467750 325.931757
-7.341668 -11.375793 310.265601
-2.812247 -25.670975 306.397028
-14.031702 58.813972 260.415983
-17.243410 56.172518 287.075733
1.294416 33.348017 314.052885
-24.841014 12.748414 321.664243
-20.579335 10.277773 334.280141
-28.582901 17.403945 351.314345
-127.755846 78.495714 245.798658
39.254141 51.668449 270.181170
1.073441 11.682997 262.290804
-0.849970 1.295886 260.842614
-86.976961 -7.071207 79.606436
38.771454 39.244267 98.084598
10.067514 35.339617 128.050504
74.923957 22.280179 289.087481
4.850851 15.630248 350.810261
90.833664 48.264120 293.063914
-10.671946 35.324600 257.632853
-22.482313 32.286445 318.943217
-19.120786 -3.862444 267.538362
-29.479233 -8.483727 248.864830
-1.286298 116.813434 257.386255
35.637588 11.325632 341.896960
56.902436 4.563464 348.868607
62.998699 91.418629 317.141736
82.862878 101.004856 303.460546
61.836925 94.287405 290.039583
-39.355711 29.198831 315.687631
-48.716464 25.297725 311.217642
41.990571 4.631790 322.752769
61.003232 -0.965277 329.197365
-46.738819 25.085835 321.001819
-60.556497 19.628940 327.316867
-46.546047 15.181860 331.598744
-47.401347 6.426955 351.531012
-58.969151 -1.275417 334.687612
-85.958413 -0.400179 344.867849
47.208555 -1.455254 335.770385
27.505229 15.657321 307.890995
17.764711 65.084984 264.174530
-11.470802 16.411327 277.772031
2.458227 63.521921 317.338730
-10.368755 86.877481 316.793730
-3.530394 96.334600 317.292200
-31.067890 54.676361 314.181422
30.833207 70.142884 302.422138
12.849354 33.291449 249.784677
3.033347 58.415511 253.301409
27.341816 23.952271 265.804975
-17.031337 102.525819 50.131647
13.511105 76.450594 287.042204
-28.328224 84.577317 298.788140
37.451220 63.211363 289.919644
5.359066 29.682931 321.702085
2.374417 33.595257 332.077930
43.244262 51.085928 285.096525
30.200139 13.982863 298.777077
43.990636 83.922143 383.254790
-35.018890 98.656296 313.653378
39.126907 32.309523 271.222357
28.441971 21.642872 252.392310
26.231499 15.650236 242.088749
22.177182 8.716555 225.688408
41.050714 29.525522 285.371778
-43.720445 71.334042 327.666984
-41.332319 73.586319 348.479855
-57.325768 77.438375 335.761231
-43.049732 84.625161 336.554051
-30.076797 35.116770 278.976734
-3.492800 24.219280 259.097347
17.610422 118.251501 212.513295
-32.559485 69.314931 303.933990
-11.372592 3.818932 285.101052
-14.146183 -3.579107 289.894458
-16.893559 -21.744723 284.497681
-22.395174 -9.570082 280.288982
-15.163725 2.046797 276.890281
-59.100635 52.149499 257.883012
-82.743860 53.318524 268.310365
23.093171 82.032858 237.409689
-17.900000 63.393194 377.645911
2.685995 54.476488 333.897813
-6.611257 59.899829 345.876824
-29.470465 22.754211 276.099612
-39.838394 17.971459 276.252183
-47.620835 13.661922 254.437564
-57.908259 7.860523 274.159848
-44.930431 25.541375 264.316750
1.985505 34.313953 241.643483
94.961436 12.449978 294.671800
41.715387 9.225786 360.517996
-12.733634 58.953876 281.452718
35.203987 115.351647 235.318221
41.148629 77.199389 274.056926
43.649868 88.038058 262.171109
-37.637356 41.703856 306.807190
-4.049137 40.905908 251.863272
8.515465 72.111080 271.902461
-22.513638 -0.157651 311.268139
-32.648808 -8.197130 309.512743
-22.612331 -10.613314 316.789790
-25.378241 -22.969208 327.636988
-46.347612 -16.948827 302.112739
-35.320135 63.081866 299.448841
35.992513 20.726405 296.940463
-2.379344 42.851363 324.016138
42.028953 35.616801 309.156593
-23.423205 59.341284 325.261656
-10.573145 -46.257421 148.610388
16.112553 -33.672705 147.290952
35.879928 20.485929 285.508595
8.781292 85.219546 284.555013
11.057543 96.278957 289.106530
9.912828 91.846926 275.655256
0.656335 104.392463 271.249905
42.617972 55.135503 292.703093
35.996894 65.079425 298.407203
-68.210734 94.641554 25.710289
-24.045059 60.417726 271.137758
11.675426 37.448536 313.471988
34.053576 54.199856 316.818286
33.846778 65.443627 283.260151
2.466137 79.295231 294.668324
-20.590193 31.782794 310.625262
4.571060 6.996741 310.209118
44.678640 38.752101 284.392571
-23.844937 43.224465 258.227045
-29.131664 37.861556 249.338880
-40.113469 25.583437 244.742341
31.388842 -23.323939 306.090604
17.500895 15.319473 273.333483
16.710077 62.550227 317.195991
47.246103 44.534529 302.349234
55.457847 45.360982 302.438155
63.961090 44.515148 309.674712
71.602876 27.424465 310.038580
64.304386 74.161969 272.879050
-7.006020 72.590064 258.843218
-1.115146 78.804100 249.475789
56.649302 7.800864 240.499398
66.677398 14.271314 217.753722
97.021472 25.462656 333.349818
69.287540 -11.943894 284.421993
-42.492475 79.684785 289.047400
-17.621586 32.091141 352.768612
25.434370 74.116126 311.679999
30.599355 7.920295 289.797779
37.931411 6.132182 287.656559
47.791662 -7.610580 284.449969
46.158576 3.190208 279.351043
41.561274 -2.955475 291.553449
55.539761 -3.915474 296.633596
-14.244141 57.305501 329.396318
24.219283 105.661354 293.842425
28.582176 123.181810 279.629539
78.979864 87.579435 279.812490
4.539145 92.940573 243.700297
13.793237 100.938434 226.627991
21.791163 39.694856 288.459545
-137.306267 18.814988 309.047488
12.925561 14.586364 330.744344
30.950209 69.389633 290.301981
30.919821 16.195275 290.175221
22.804746 9.870929 302.029142
-53.800195 41.842743 299.399721
-61.620761 53.067452 295.376774
-81.213765 47.007355 290.568421
-98.960574 49.155942 312.946441
-21.920537 77.681246 303.094330
-23.393886 81.133820 298.373496
80.703097 82.870529 366.333874
-108.703904 74.273806 103.893611
26.397577 62.040886 267.143381
30.653692 59.576845 264.449404
34.161173 65.233488 261.319764
25.792112 75.055505 300.494766
27.317567 83.158281 302.399095
6.375451 53.404581 311.638597
70.431713 61.238656 137.358873
61.732082 39.123703 137.206898
52.946862 77.453198 135.382641
32.393640 43.648858 149.759999
-28.251611 26.923661 262.233714
-31.651057 12.257696 256.388595
7.992278 -42.716264 15.020924
5.285840 50.981432 296.115727
-16.323704 77.400197 286.186206
-46.704864 67.500000 377.351145
-9.228255 87.618292 281.374286
-10.080897 100.254051 283.806295
20.538381 7.382952 312.156439
24.473670 -0.437499 314.571272
25.031224 -13.132323 315.900628
15.396533 -25.407263 324.835187
34.068221 -25.359759 322.201190
-18.122524 70.754693 324.856950
-23.802076 71.258133 334.171886
-23.637853 79.414850 350.975586
7.151561 11.340398 311.936219
42.605778 53.595599 303.869798
38.483205 51.462122 322.526456
40.266897 56.435036 330.184301
49.655159 60.754031 339.764429
39.463958 65.429876 357.682581
42.608113 44.491019 325.999304
55.552589 38.837205 329.866755
66.994902 63.969125 347.537216
-12.522548 80.839388 308.040624
-16.453070 59.400000 22.748349
12.880344 56.404671 316.101871
-18.630282 55.420295 250.428750
-26.218174 56.703897 242.981639
-20.756778 56.872368 226.495722
-41.263506 59.402741 238.425281
-18.998528 75.555862 212.135123
-3.779940 72.468175 185.918878
27.255998 59.963215 323.024511
26.744035 62.482223 333.236619
26.231835 65.836540 348.808633
30.298580 55.571134 329.690001
30.831775 46.571608 340.500187
20.833192 52.468983 336.536615
20.184566 73.668339 338.766999
-44.078399 83.497697 314.718896
-49.808877 96.797332 308.714683
-25.297689 -42.851944 173.759676
-33.441323 20.117415 309.683801
-41.457149 13.949419 310.234132
-72.924627 26.038958 230.211408
-11.392858 20.432103 322.237684
-11.136874 15.432517 331.263593
-6.814916 7.585366 344.120652
-11.830700 13.462384 364.153752
41.661239 69.821385 315.903821
43.252842 77.562207 319.270279
46.353429 76.300283 330.399423
-41.651454 42.216790 279.979241
-53.890796 42.376776 269.827827
-43.146166 41.550541 269.315559
2.012651 22.294509 258.822174
40.888833 31.690306 220.747517
-31.948122 66.924538 319.532956
-37.592776 69.265543 322.630113
-36.589419 36.020160 350.507383
-25.034150 67.711932 315.351993
-36.123126 45.872467 285.429924
-78.396186 90.537338 304.046212
46.624775 99.749773 280.984490
52.695109 121.376673 286.630823
21.048597 20.777126 313.554676
3.907426 45.732179 301.585876
-0.681727 -8.628760 339.783498
-14.844680 -20.131942 302.838979
48.148115 48.692918 287.707050
55.718006 51.470582 290.598721
64.506719 47.638747 296.313439
-60.794886 -33.696562 296.987054
-30.308121 57.033018 334.115396
53.083280 23.975445 237.810452
14.528483 25.388833 342.512182
43.007207 65.648312 264.360905
38.094513 72.776852 257.527250
42.278568 82.890468 250.006783
39.280187 93.045252 232.944548
43.777748 101.705054 249.124604
-48.453581 37.102930 284.113565
4.440049 35.470055 282.310815
-15.389238 59.055623 292.305676
32.697886 114.960126 194.040890
-15.508677 67.920378 271.381640
-113.950656 81.732925 146.364373
-4.524784 68.760542 266.628905
8.898234 38.102321 277.733979
-86.010998 -17.997923 259.094970
6.539398 -43.928701 44.284741
14.381685 86.276050 304.387268
10.732304 96.588829 311.829812
17.261455 98.003656 300.953571
-12.178206 74.659904 277.351042
-9.564418 80.159497 314.282005
-17.777198 14.274573 288.279507
-92.022015 117.533118 258.385004
-60.300000 9.771040 23.022559
-9.524616 79.056822 288.918671
-7.267536 77.126322 280.733714
35.475078 55.441338 266.556001
-16.644130 50.948115 314.648307
22.100000 31.624331 378.593879
11.354161 78.988632 299.525870
10.879827 86.062948 298.052083
27.679610 87.568078 116.416258
12.130616 42.117003 299.498327
-51.205305 126.249063 298.413102
-14.696599 7.859193 295.919678
-20.173159 4.217892 293.403925
-31.086605 29.784439 283.516862
14.104565 18.734200 265.167797
14.666107 13.832973 261.589743
15.681064 7.947870 254.869843
14.730539 12.677452 243.869476
21.666766 9.988748 260.252692
22.581898 -2.666283 263.145460
34.431310 -17.303291 254.549443
28.504173 5.626029 253.142896
18.034294 -16.888116 256.166371
36.920768 -4.207092 257.464435
-32.036809 59.930645 284.496312
-34.178388 61.550394 292.460178
-26.666360 15.650978 306.572013
-16.072794 78.761041 311.084624
-20.930153 79.065300 310.334880
-24.602774 83.378425 312.925931
-60.300000 66.540402 22.790262
3.365422 -6.399886 370.010889
14.469101 64.658586 260.630743
46.506584 23.143919 290.727386
54.183794 13.892399 291.921188
-9.601245 9.495383 319.739607
-9.212741 3.595678 330.224601
13.366729 44.309239 290.491794
6.249336 42.774788 290.778814
37.495510 46.285376 263.013537
-1.061855 9.485502 284.734264
49.098681 -24.093619 56.818119
-11.312743 23.036118 269.201505
31.646349 60.443565 320.061562
3.158664 4.382485 302.466667
-37.512550 18.126345 292.611298
37.569534 17.821944 320.787466
46.403681 23.464992 325.933714
58.998675 20.929057 338.577304
-63.815816 -27.761522 155.470938
-69.789987 60.348765 324.522875
18.781330 62.915774 260.398578
21.435445 66.542237 256.886883
26.936274 70.899737 252.593541
32.096678 75.745875 242.680911
33.764150 74.921315 224.775266
22.786718 79.499416 247.789480
31.166571 91.322109 245.418911
45.430232 31.430403 282.320183
-49.071806 70.026520 286.366305
-63.651068 64.445892 283.297794
-80.872543 75.442899 274.715858
-17.931487 52.043078 340.630570
3.202559 50.173876 313.892592
-14.994431 83.432972 283.072121
-17.305707 90.976606 278.839924
-20.145644 103.021221 276.875028
-28.314316 83.343000 338.732182
-35.169612 99.222825 343.146876
14.213816 77.214891 355.024621
-49.995882 45.709029 277.639652
-62.543423 52.426602 275.442661
-55.480071 29.173122 289.453370
-28.250942 73.757296 307.101742
-84.347706 120.177980 212.373318
5.615490 15.661989 324.484869
-27.344510 51.712534 314.603622
-28.299511 50.669472 320.456633
-30.189199 45.967528 328.318196
40.281816 31.574445 308.885390
13.275874 23.861186 257.542629
17.706583 71.619388 315.414763
-33.397326 30.524369 291.436950
17.132713 5.547395 270.933574
-37.095337 37.328301 308.693352
-119.656190 51.306770 235.228237
-13.495076 35.253258 260.954045
-2.730214 -4.632301 306.688873
2.006290 -10.675818 312.519437
2.877624 -20.812270 321.694999
13.271952 -10.666965 316.789490
-33.144729 67.281037 297.234919
33.252933 46.665752 321.789030
41.006554 48.842224 274.697039
44.226490 53.550813 274.489188
21.254418 74.605284 296.573593
-11.606819 21.441208 309.298297
-5.360744 4.270917 301.127723
6.325244 55.384728 251.302221
2.912071 75.113680 315.038907
25.306561 70.078870 321.073788
21.329675 72.267105 328.201989
26.397987 82.899289 331.976074
14.047701 80.509876 331.756968
27.451997 76.686829 323.804031
36.041307 10.438329 305.920399
46.304963 5.845504 303.553060
50.224435 -4.728282 313.888348
-4.440741 99.400000 22.130861
9.763304 68.472492 317.523439
-51.825003 65.689040 308.646456
14.123778 41.343844 266.428603
16.056961 13.538440 277.478648
-20.506712 116.158866 180.462458
13.663269 50.239820 305.941084
4.982573 113.776113 339.759713
-19.770816 113.147924 340.142350
10.590853 98.105075 367.193543
57.646845 52.918879 277.266301
21.282468 72.867154 284.326807
-20.354746 19.741539 321.578410
4.442518 46.892367 241.783844
33.903285 22.347485 278.601610
-1.132029 88.365888 301.382460
-3.316335 98.163822 304.390024
1.525288 91.962887 309.700673
-3.800990 48.926682 235.754126
-2.909544 62.067142 228.849602
21.162809 122.177630 257.070532
-59.983254 17.520927 309.863329
-80.581600 17.184785 304.426026
19.382429 -1.672116 205.598185
34.695118 18.314041 292.957603
-3.120715 45.631139 334.203114
38.490861 14.593950 284.981979
45.004162 13.254351 277.743198
-23.375799 45.557696 248.905888
77.181161 49.646706 291.052916
86.400564 47.248038 274.637660
-52.434792 28.277504 277.560219
7.783376 -2.093959 240.506382
10.835917 81.360601 242.387318
4.900436 -24.521738 338.089094
29.484048 43.619466 327.833593
27.763205 34.097072 330.597964
31.695361 32.429245 344.764617
66.603695 61.318475 274.338518
81.488439 67.411384 273.325047
61.059234 53.004776 265.058800
-12.285374 -1.513451 235.429319
67.677132 51.178162 250.862911
27.562940 17.193550 281.885569
-34.152318 95.532457 98.734046
-32.326332 32.128839 287.103589
-45.049591 41.216413 312.836098
-55.105144 36.923168 315.060931
-11.628582 39.660844 257.365623
37.636271 59.959410 280.859285
2.020422 -39.406847 182.368788
41.517325 55.956426 287.101663
-39.819209 49.976478 307.186911
-21.035935 45.383468 310.014306
-14.435037 27.157074 268.124501
-2.632280 53.087166 323.076863
-5.630141 55.771955 331.012121
6.997047 64.741463 325.828539
1.229284 70.924631 334.086175
12.340339 61.010960 333.924995
35.160816 59.400000 21.677624
-18.888759 108.873957 131.200546
70.641869 27.440255 191.093134
-7.740458 55.349779 315.411488
-30.780211 54.948146 260.807857
-38.480845 59.224435 254.663237
-38.027507 49.787470 262.511031
-136.292837 91.097662 296.072993
68.524741 74.132072 302.721142
-11.445355 33.399261 200.068692
-15.679890 20.869341 172.531101
40.098258 72.660541 293.522309
48.273249 72.041358 297.811258
59.406978 69.075424 291.999443
-39.969720 81.253313 270.927578
27.874057 -1.033838 275.114370
35.362489 -14.032203 274.192039
51.916851 -23.130219 273.018621
19.457402 29.582202 216.822010
13.369490 34.533720 199.026530
15.384444 54.873802 182.590822
-6.980717 55.331936 154.730911
2.871926 75.662376 280.681642
-26.146408 -41.071028 275.209781
17.593425 80.616989 279.165419
22.377476 88.473745 275.358331
32.522695 96.621345 278.277913
-40.340846 43.404778 314.081123
-44.101022 42.468025 318.498715
-50.316087 48.116302 317.294757
-63.087277 46.496753 318.496348
-82.077542 45.786636 321.554413
-57.764966 56.441430 313.201410
-101.002509 48.497810 338.213682
-17.747141 9.683399 306.694353
-21.917750 8.581268 309.330296
-27.384136 9.494663 313.095954
-18.298007 6.023467 303.670283
-20.374594 -1.676436 302.939348
-23.447888 -12.052650 304.601940
-22.182554 6.806841 299.101451
-27.109926 0.557215 299.328988
-30.036868 -1.721780 290.035677
-36.906300 -13.257282 289.339941
-39.062874 -20.587067 274.201642
-52.649792 -9.141825 260.621732
-27.104256 -23.301118 297.922309
-39.505599 -34.100024 308.437545
-27.625410 -41.084254 294.544981
-33.402318 12.661957 329.190453
81.019327 99.451324 327.635839
7.762077 2.406264 311.882494
5.740910 -0.629423 319.230631
10.109683 -2.579658 330.044805
1.259955 2.979736 328.157152
6.776422 5.907107 340.791394
-33.769129 35.582616 235.945463
-29.537586 31.274990 218.230595
-42.229138 47.176380 225.233000
60.636330 37.820196 297.991309
66.519587 26.248882 298.151119
-84.464268 71.856101 101.789734
34.051746 90.622538 299.706455
33.796706 105.077477 306.745599
46.600823 121.550299 306.584638
7.907583 51.199117 307.495515
9.461786 53.102994 314.051596
22.644983 63.547346 327.338821
3.534563 17.670017 254.396892
-4.889851 15.889922 251.627946
-4.936601 4.295010 245.412128
6.586641 13.960973 247.000738
-16.172611 -34.271812 311.753152
-16.291015 78.847195 275.871055
-12.962871 86.165226 273.545872
-18.198384 88.542532 260.762412
-4.435684 88.673030 266.754859
28.650739 2.772724 240.219494
26.498837 -14.401376 239.420896
46.532257 15.461974 292.160542
-61.563807 16.772596 285.010476
-80.772936 21.412208 277.911206
-74.000675 1.536604 283.633467
-80.435445 -17.775440 298.730184
-106.896850 17.799848 273.013233
3.881294 80.569282 317.594913
1.034230 83.108741 325.846712
-2.265825 90.456852 336.237763
10.794511 83.807739 319.691098
8.226001 90.615807 327.246977
19.631824 88.338057 319.231384
20.875170 102.013310 319.330854
21.118816 98.422360 282.423882
-38.107384 12.170267 342.415847
-21.854745 78.148745 271.060290
-20.608941 77.758183 261.241962
-28.504073 80.378510 265.131920
11.370891 99.782438 335.776361
17.137443 99.996774 351.694031
12.990630 42.964155 282.641572
-14.348761 126.075984 211.963558
0.733729 14.916788 271.978828
-52.066663 -43.404561 123.430562
18.494044 42.991130 313.800301
16.779438 38.935657 316.163937
14.125133 44.591436 314.372913
14.751428 38.328605 321.991594
18.729063 34.876204 329.460000
-71.779441 124.098148 191.819742
19.700000 -15.039484 21.539941
43.370118 42.727091 307.899690
-33.351090 65.464137 313.370157
-36.424061 63.173412 310.473511
-43.089376 66.013538 310.695083
22.301585 32.471064 253.901990
-66.389413 110.086417 155.135581
47.510570 40.600646 316.761937
53.582390 35.979267 321.552602
67.721816 34.657831 323.537941
63.253748 4.498717 79.945497
32.698233 26.481714 267.863567
35.674368 22.454586 263.406725
40.621920 13.557300 260.785170
37.214753 19.481103 255.510966
37.029883 16.496953 244.762421
7.491012 41.033334 308.425395
9.603191 42.581324 312.881364
40.891075 41.528990 270.201333
-117.318979 63.803694 167.610932
23.910868 53.667769 254.170674
-4.333098 20.328024 266.132186
20.001827 56.914589 316.861731
10.210996 70.132513 268.362781
40.956448 50.653076 310.871939
41.253665 49.846007 316.202783
-31.115357 79.467252 319.948210
-30.182934 85.569171 328.550819
-35.440334 88.152026 317.128150
24.819467 67.500000 380.090080
-25.130700 48.869984 271.044422
-9.151740 68.935860 317.140576
19.700000 37.681076 20.564164
90.339463 64.636060 327.250203
20.728644 58.377764 245.201912
21.434065 67.203347 235.988886
26.213003 58.589072 237.817843
35.003410 66.817672 234.407466
18.052705 66.883885 244.284690
29.482769 6.023303 299.678607
35.483230 0.748165 296.426662
33.266830 -9.769316 294.021205
84.903082 76.992948 237.288922
-30.043170 71.417137 309.023905
11.671562 73.347378 276.420450
40.165659 21.107719 306.688906
47.858062 18.541206 307.373364
59.617138 20.643445 309.792295
61.307323 14.230971 323.945144
-2.871543 33.172812 313.469374
-43.502842 -13.504731 361.517003
27.334812 21.275193 269.529362
30.405227 16.669573 267.173917
36.288253 11.046765 267.199462
45.229865 4.814797 265.639056
61.122937 7.127918 265.195219
29.156777 10.494610 262.509227
38.622868 3.246970 272.884476
-46.593768 105.253008 322.323468
31.033025 24.266945 243.178681
39.520014 29.776137 234.121758
-31.823162 14.798854 274.451691
-39.841352 11.794724 265.586806
-26.273669 5.465569 275.678373
-40.836142 -0.088472 255.845738
-52.010515 1.284316 238.906707
-26.749443 13.255201 265.506082
-44.273021 5.199665 278.930926
61.779129 95.299860 264.513655
-13.387868 85.748634 310.310597
-17.149338 94.033576 310.639062
-10.698347 103.944412 311.669634
1.198096 114.311934 314.859632
-55.237526 62.752578 225.581835
-61.184639 75.756800 198.465947
-84.219403 54.185204 212.742538
-31.938917 53.240496 231.902663
22.063388 73.408239 257.587998
17.532014 79.971076 254.514005
25.637375 88.013743 254.851733
16.832902 88.781266 247.917874
16.781677 88.423655 261.393184
-105.140048 68.153203 265.299264
11.701688 48.061552 237.309081
11.775182 44.779911 224.097409
19.002804 52.192459 230.504152
11.662663 51.105583 207.710891
22.242902 53.357765 217.502373
40.415398 56.673648 209.606703
24.741948 42.019419 224.257275
96.420922 65.427816 285.699598
85.908208 46.493587 254.565142
-40.504994 71.731526 251.709273
-40.124458 38.646815 322.984692
-45.663138 36.110122 332.195526
-46.502446 -39.493065 276.726407
14.080786 -13.544443 338.342260
-48.217031 25.272300 206.977723
-49.506237 40.552548 181.677903
36.014439 101.286614 293.305035
35.597416 118.175371 294.186422
10.894587 33.883127 326.650790
10.537137 30.037828 335.294850
1.048984 32.881333 348.583263
3.343269 20.670350 339.448850
11.644618 36.481379 345.042585
12.311493 31.528945 361.457256
1.309093 23.507153 379.150715
69.970397 44.003400 337.934072
27.662388 -0.481707 301.649655
31.677506 -8.419639 302.737104
22.540287 -15.856788 303.706430
39.328884 -14.952579 309.170235
47.447494 -28.759099 302.615298
49.723216 -19.644690 321.352329
20.410871 -4.728575 298.478005
13.130698 -13.088711 298.539805
3.295035 -16.087690 289.363810
-60.504328 115.844301 330.661303
-80.018141 118.724969 317.056741
33.991158 18.161801 233.230857
-22.405726 3.951132 258.257915
57.219192 118.552527 261.174586
-76.454271 72.332543 225.093306
28.506251 75.811452 262.429663
-46.163219 81.369014 240.649821
-68.565687 82.137099 247.254221
-34.630512 31.092494 337.881603
-47.401780 14.409152 157.419672
6.888943 47.580879 289.449379
-134.661619 73.977703 364.703927
-3.204923 8.875497 289.157496
-60.300000 -29.504640 21.828643
-22.667078 15.204550 291.140463
-26.929109 11.230037 289.047795
-25.360069 6.708781 283.130635
-33.941309 1.517208 281.162886
-33.713671 28.496775 298.605143
24.368055 11.045034 294.376548
35.277738 33.750393 264.318708
39.652549 32.570836 261.758410
48.145099 32.330855 259.095266
59.016679 34.616040 262.802236
34.528685 66.302808 291.713602
18.085508 70.170403 271.971732
22.323514 73.357285 274.695660
25.838771 80.107602 272.065730
-17.511871 33.011424 265.775164
10.073408 39.133149 304.366742
-23.256140 37.890356 312.636426
-25.476115 37.383860 317.226243
37.206468 68.174334 328.852461
33.711949 71.133025 340.016517
-30.726773 58.760235 280.820613
-32.592183 54.281577 279.836550
-38.070608 55.781289 276.348487
-48.691675 56.518759 275.137713
-40.677749 61.874838 271.464736
-48.157641 66.352616 264.377719
62.486611 71.105513 257.838897
-30.548037 45.034067 276.709329
32.419598 65.817761 319.328537
-77.083758 81.199137 339.358762
-6.794168 34.523917 239.873214
-14.556098 56.006894 279.803145
44.035964 87.554944 321.871223
43.915354 102.621552 329.627906
50.170220 96.897584 312.140483
64.792422 105.915472 304.602077
39.496576 98.782064 318.505036
-36.956336 30.191355 285.287689
-42.954412 26.762275 281.221223
-37.954824 23.764979 285.637248
-43.758073 32.085535 285.820391
87.484430 73.722087 302.860031
-35.429080 9.433592 313.061801
-39.935503 1.753223 320.414440
-51.232326 -8.941555 323.229339
-62.419080 -20.899431 334.581908
30.008165 101.008137 255.054160
37.815527 116.705553 256.035776
34.357956 84.044762 261.804965
-17.705628 29.881689 237.672162
-80.300000 -20.600000 16.197982
-120.300000 38.769261 15.792128
-19.862671 48.333363 301.207553
39.700000 99.400000 16.815471
6.147240 126.809040 278.264946
-133.963066 0.289150 361.167647
-108.262883 5.892433 357.766576
68.237546 57.606067 76.684264
-56.420850 43.431638 117.236266
-57.900000 27.500000 383.243596
-27.585962 -7.515904 78.149125
-40.300000 79.400000 17.094198
68.201683 77.081140 149.000129
-35.092409 76.734466 161.101738
-3.622959 43.391360 81.182699
-135.947794 42.651466 360.564148
-162.398633 13.860054 352.727213
-38.403954 27.167817 74.430314
-123.210062 111.785321 258.099056
-11.293937 -7.949906 117.607277
-23.581695 22.888043 131.702721
13.731112 8.911887 90.771789
-101.174478 109.695082 196.086533
-116.721171 72.060342 331.349612
-117.352249 30.402778 215.063503
-111.743289 9.791696 211.224550
-0.870183 120.961868 170.882479
137.587366 26.917392 340.451979
51.659621 -23.202741 32.908661
39.700000 -20.600000 15.160806
-26.750000 -46.069512 234.132249
-69.400209 126.348336 255.799510
-102.515682 2.669127 54.475487
-108.426039 23.759298 150.015449
-74.523574 56.867937 155.776703
-53.540387 -41.375126 186.767870
-29.789830 81.224630 384.518205
-2.016341 59.506474 54.438417
-26.764513 64.542601 131.344024
21.731401 31.106074 59.191494
39.700000 19.400000 16.727074
-77.915901 -33.652543 278.011903
115.738732 87.087850 320.548793
130.869286 67.289423 318.153122
-89.025189 127.573690 235.594382
36.369556 -36.124263 77.770843
-91.080102 126.667209 280.735032
-30.704790 -47.454091 16.888519
-20.300000 -20.600000 15.306070
-47.332192 -42.179270 33.605134
-26.585821 7.500000 387.557232
-17.900000 25.589203 385.338873
-35.434520 -53.380907 80.044104
-56.260884 55.895313 64.759319
-28.583318 73.224860 43.938528
-21.462400 72.817430 69.841632
-29.279435 51.894590 85.726743
-126.345775 30.465645 255.921630
-117.893812 42.569388 279.577980
15.632746 89.859797 85.785465
54.446241 86.820681 51.461175
59.700000 79.400000 16.949813
-73.897041 34.145887 356.044749
-37.900000 27.500000 386.735147
-25.247186 -8.667933 185.880360
-102.247666 82.134291 76.992668
-113.063872 56.139395 84.595824
-106.837934 41.264618 64.573933
-6.241945 -24.240746 80.038473
-109.321911 19.400000 19.369768
3.324588 -10.684967 164.208929
-3.808900 5.108889 141.699648
24.936868 8.133660 170.440512
42.100000 34.102377 385.011705
-88.769344 95.789933 19.424061
-84.766303 92.842471 50.965018
-100.300000 79.400000 14.804311
-50.729078 75.244427 134.002262
-49.370908 77.480354 101.853322
-6.946612 -14.339998 205.373584
60.309777 8.181849 140.340016
-97.621120 -9.963556 165.242109
-64.079605 -32.707731 256.591621
122.278979 44.724171 322.859752
32.021767 62.316716 275.249412
4.883795 71.458890 94.639927
15.293408 61.612133 119.010997
-52.466425 104.451299 191.354081
-40.841166 88.438846 207.786092
-38.851146 124.237723 170.331017
-98.883806 63.364160 116.683221
-82.667474 51.729022 108.901368
-118.012766 54.999625 106.326156
-107.745334 39.312188 111.568060
-65.154602 101.013730 231.892025
-43.482661 127.724954 210.806665
-40.300000 39.400000 14.559673
5.236724 90.018580 385.911493
-99.723879 97.132494 158.576300
-118.090412 94.042467 183.409667
-100.339849 101.307588 178.041034
-83.638331 -17.126567 231.018089
-68.977766 87.500000 388.013488
-67.281668 88.612749 367.295964
-5.745216 6.684937 56.798158
0.685161 -15.173675 46.582898
-0.300000 -16.419382 16.645684
36.469157 8.772264 45.388952
39.655773 4.913715 73.647547
62.367373 30.995966 47.582853
2.065483 -24.223159 224.984312
19.558509 -35.016930 222.266153
-60.178580 -34.405545 78.317136
-40.136039 113.890198 151.148533
0.498678 70.634598 317.854833
63.408903 94.660344 171.435434
-35.324646 102.816750 121.485446
-69.091882 106.264340 127.443923
-96.244940 85.816426 241.078104
-160.615530 85.231235 325.352903
-159.702696 60.819250 333.166848
-49.229225 -1.934412 294.429972
-64.688635 -9.509157 298.896629
-115.344856 -10.015956 322.525335
25.190053 76.519164 167.188695
-118.696859 102.071487 202.976776
-103.626980 112.264963 364.897548
-110.622249 78.423362 362.889763
-10.532743 -45.193805 243.776012
-1.776223 -42.456054 276.801193
-71.404654 14.003836 150.647584
-101.839705 0.834555 123.711149
-24.073434 -23.758561 140.174035
-36.017432 -48.154412 135.889019
-51.785902 -44.720023 164.653505
57.366665 -2.619574 198.994102
-67.629906 111.332719 350.853291
-92.321769 74.213785 137.703553
-71.102449 71.294431 140.129373
-86.342168 88.953435 115.020393
-14.423516 127.955538 233.539810
-26.470808 -20.907078 349.015208
-27.226428 -13.098897 370.123336
-33.914437 112.415436 16.364531
-49.128331 98.507963 18.587469
-76.873257 14.913166 175.134240
-78.619993 42.412941 185.260553
-81.059361 9.556896 197.300938
-15.196131 -28.293575 61.588006
